    0.97187500000000   0.93437500000000   0.90625000000000   0.97187500000000
    0.95312500000000   0.95312500000000   0.94843750000000   0.95312500000000
    0.97187500000000   0.95312500000000   0.85937500000000   0.97187500000000
    0.95312500000000   0.97187500000000   0.71679687500000   0.85156250000000
    0.74218750000000   0.73437500000000   0.28125000000000   0.28906250000000
    0.63281250000000   0.62500000000000   0.74218750000000   0.75000000000000
    0.76562500000000   0.76562500000000   0.73437500000000   0.74609375000000
    0.78125000000000   0.80468750000000   0.81250000000000   0.54687500000000
    0.53906250000000   0.34375000000000   0.64062500000000   0.79687500000000
    0.34375000000000   0.35156250000000   0.58593750000000   0.57812500000000
    0.61718750000000   0.59375000000000   0.91406250000000   0.89843750000000
    0.71875000000000   0.71875000000000   0.70312500000000   0.68750000000000
    0.71875000000000   0.73437500000000   0.70312500000000   0.60937500000000
    0.81250000000000   0.79687500000000   0.64062500000000   0.62500000000000
    0.53125000000000   0.76562500000000   0.68750000000000   0.68750000000000
    0.70312500000000   0.71875000000000   0.98125000000000   0.94375000000000
    0.96250000000000   0.96250000000000    1.0000000000000    1.0000000000000
    0.93437500000000   0.94375000000000   0.98125000000000    1.0000000000000
    0.88750000000000   0.85937500000000   0.85937500000000   0.82812500000000
    0.94375000000000   0.67968750000000   0.71875000000000   0.70312500000000
    0.48437500000000   0.57812500000000    1.0000000000000    1.0000000000000
    0.67187500000000   0.68750000000000   0.35937500000000   0.42187500000000
    0.79687500000000   0.62500000000000   0.54687500000000   0.82812500000000
    0.78125000000000   0.67187500000000   0.64062500000000   0.98125000000000
    0.45312500000000    1.0000000000000   0.57812500000000   0.66015625000000
    0.64453125000000   0.58203125000000   0.67578125000000   0.54296875000000
    0.80859375000000   0.77734375000000   0.76953125000000   0.78515625000000
    0.59765625000000   0.66015625000000   0.64453125000000   0.51171875000000
    0.56640625000000   0.59765625000000   0.57812500000000   0.59765625000000
    0.68359375000000   0.52734375000000   0.68359375000000   0.48437500000000
    0.48828125000000   0.51171875000000   0.72070312500000   0.73046875000000
    0.54296875000000   0.63671875000000   0.71484375000000   0.62500000000000
    0.61328125000000   0.46484375000000   0.69921875000000   0.67578125000000
    0.77734375000000   0.85937500000000   0.85937500000000   0.95781250000000
    0.92968750000000   0.95781250000000   0.93437500000000   0.94843750000000
    0.92031250000000   0.90156250000000   0.96718750000000   0.95781250000000
    0.97656250000000   0.96718750000000   0.98593750000000   0.93906250000000
    0.92031250000000   0.73046875000000   0.31250000000000   0.52734375000000
    0.52343750000000   0.30468750000000   0.31250000000000   0.32031250000000
    0.89843750000000   0.86718750000000   0.86718750000000   0.67187500000000
    0.71093750000000   0.45312500000000   0.61718750000000   0.60937500000000
    0.63281250000000   0.64843750000000   0.63281250000000   0.64062500000000
    0.63281250000000   0.72656250000000   0.52343750000000   0.69531250000000
    0.59375000000000   0.60156250000000   0.60937500000000   0.58593750000000
    0.75781250000000   0.77343750000000   0.85156250000000   0.83593750000000
    0.67968750000000   0.83593750000000   0.80468750000000   0.58593750000000
    0.75781250000000   0.69921875000000   0.66406250000000   0.59375000000000
    0.75390625000000   0.72265625000000   0.73437500000000   0.67968750000000
    0.57812500000000   0.60156250000000   0.55468750000000   0.54687500000000
    0.75781250000000   0.37500000000000   0.39843750000000   0.38281250000000
    0.35937500000000   0.33593750000000   0.35156250000000   0.85546875000000
    0.84375000000000   0.80859375000000   0.82031250000000   0.61718750000000
    0.75000000000000   0.73046875000000   0.73828125000000   0.73437500000000
    0.61718750000000   0.65625000000000   0.61718750000000   0.64062500000000
    0.63281250000000   0.53906250000000   0.82031250000000   0.72656250000000
    0.61718750000000   0.57031250000000   0.98828125000000   0.70312500000000
    0.69921875000000   0.68945312500000   0.61132812500000   0.97656250000000
    0.98593750000000   0.89453125000000   0.94140625000000   0.94609375000000
    0.91796875000000   0.99765625000000   0.88984375000000   0.64843750000000
    0.64062500000000   0.63281250000000   0.33593750000000   0.30468750000000
    0.32031250000000   0.66406250000000   0.65625000000000   0.69531250000000
    0.70312500000000   0.71093750000000   0.74218750000000   0.59179687500000
    0.60156250000000   0.57031250000000   0.55468750000000   0.71093750000000
    0.70898437500000   0.70605468750000   0.70410156250000   0.75390625000000
    0.73828125000000   0.50781250000000   0.51562500000000   0.52734375000000
    0.60546875000000   0.58203125000000   0.57812500000000   0.60937500000000
    0.62109375000000   0.56640625000000   0.54687500000000   0.53515625000000
    0.51953125000000   0.57031250000000   0.65234375000000   0.50000000000000
    0.79687500000000   0.92031250000000   0.93906250000000   0.94843750000000
    0.99531250000000   0.99531250000000   0.98593750000000   0.98593750000000
    0.93906250000000   0.95781250000000   0.99531250000000   0.96718750000000
    0.96718750000000   0.95781250000000   0.91093750000000   0.94843750000000
    0.89218750000000   0.98593750000000   0.99531250000000   0.99531250000000
    0.98593750000000   0.96718750000000   0.95781250000000   0.96718750000000
    0.99062500000000   0.98593750000000   0.97656250000000   0.97656250000000
    0.97656250000000   0.97656250000000   0.94843750000000   0.92968750000000
    0.97656250000000   0.91093750000000   0.29687500000000   0.30859375000000
    0.66406250000000   0.48437500000000   0.71093750000000   0.56640625000000
    0.75585937500000   0.75781250000000   0.75390625000000   0.74121093750000
    0.74023437500000   0.74218750000000   0.70800781250000   0.69921875000000
    0.56250000000000   0.53125000000000   0.51562500000000    1.0000000000000
     1.0000000000000   0.99765625000000    1.0000000000000    1.0000000000000
     1.0000000000000   0.74609375000000   0.74023437500000   0.52929687500000
    0.61523437500000   0.69042968750000   0.72363281250000   0.57421875000000
    0.55859375000000   0.58984375000000   0.62890625000000   0.63867187500000
    0.64843750000000   0.63671875000000   0.85156250000000   0.83593750000000
    0.85937500000000   0.84765625000000   0.38281250000000   0.37500000000000
    0.39843750000000   0.38281250000000   0.62500000000000   0.61328125000000
    0.67968750000000   0.69140625000000   0.68750000000000   0.69921875000000
    0.52734375000000   0.73828125000000   0.80468750000000   0.78906250000000
    0.81250000000000   0.80078125000000   0.61328125000000   0.74609375000000
    0.53515625000000   0.79296875000000   0.73437500000000   0.72265625000000
    0.56640625000000   0.98125000000000   0.61523437500000   0.54296875000000
    0.53320312500000   0.63671875000000   0.61914062500000   0.52734375000000
    0.56640625000000   0.57617187500000   0.51171875000000   0.72460937500000
    0.80468750000000   0.80078125000000   0.81054687500000   0.52343750000000
    0.53515625000000   0.71875000000000   0.71484375000000   0.72460937500000
    0.59179687500000   0.63867187500000   0.66015625000000   0.66992187500000
    0.65820312500000   0.66503906250000   0.66015625000000   0.65625000000000
    0.66210937500000   0.67773437500000   0.63085937500000   0.46875000000000
    0.49023437500000   0.77343750000000   0.77148437500000   0.66601562500000
    0.96953125000000   0.30546875000000   0.72851562500000   0.61621093750000
    0.61328125000000   0.62451171875000   0.62304687500000   0.62695312500000
    0.98593750000000   0.99531250000000   0.98593750000000   0.99531250000000
    0.98593750000000   0.97656250000000   0.96718750000000   0.95781250000000
    0.98593750000000   0.94843750000000   0.99531250000000   0.94843750000000
    0.98593750000000   0.97656250000000   0.97656250000000   0.97656250000000
    0.97421875000000   0.97656250000000   0.96250000000000   0.95781250000000
    0.96718750000000   0.97656250000000   0.71679687500000   0.72167968750000
    0.64453125000000   0.64062500000000   0.98593750000000   0.98125000000000
     1.0000000000000   0.99062500000000   0.37500000000000   0.37500000000000
    0.38281250000000   0.39062500000000   0.40625000000000   0.37500000000000
    0.36718750000000   0.61718750000000    1.0000000000000   0.30468750000000
    0.97187500000000   0.99062500000000   0.52343750000000   0.53906250000000
    0.69531250000000   0.33593750000000   0.62500000000000   0.67968750000000
    0.48437500000000   0.49218750000000   0.68359375000000   0.67578125000000
    0.67187500000000   0.69921875000000   0.68750000000000    1.0000000000000
    0.57031250000000   0.69873046875000   0.65820312500000   0.66210937500000
    0.65429687500000   0.65820312500000   0.72851562500000   0.99296875000000
    0.98828125000000   0.97890625000000   0.60937500000000   0.62109375000000
    0.71289062500000   0.73046875000000   0.70996093750000   0.71093750000000
    0.70703125000000   0.71289062500000   0.71484375000000   0.72265625000000
    0.58984375000000   0.56640625000000   0.56445312500000   0.57031250000000
    0.60742187500000   0.61328125000000   0.70312500000000   0.60156250000000
    0.60937500000000   0.61132812500000   0.60546875000000   0.61328125000000
    0.62109375000000   0.99296875000000   0.98828125000000   0.98359375000000
    0.97890625000000   0.99765625000000   0.99765625000000  0.    1.0000000000000
     1.0000000000000   0.75000000000000   0.50000000000000    1.0000000000000
    0.85000000000000   0.50000000000000   0.37500000000000   0.50000000000000
    0.25000000000000   0.42500000000000   0.68750000000000   0.87500000000000
    0.62500000000000   0.75000000000000   0.75000000000000   0.75000000000000
    0.62500000000000   0.25000000000000   0.18750000000000   0.75000000000000
    0.56250000000000   0.68750000000000   0.43750000000000   0.50000000000000
    0.68750000000000   0.71875000000000   0.59375000000000   0.62500000000000
    0.25000000000000   0.21250000000000   0.75000000000000   0.92500000000000
    0.87500000000000    1.0000000000000    1.0000000000000   0.87500000000000
    0.34375000000000   0.65625000000000   0.51562500000000   0.53125000000000
    0.46875000000000   0.43750000000000   0.31250000000000   0.56250000000000
    0.84375000000000   0.81250000000000   0.93750000000000   0.87500000000000
    0.75000000000000   0.81250000000000   0.68750000000000   0.56250000000000
    0.62500000000000   0.75000000000000   0.81250000000000   0.37500000000000
    0.56250000000000   0.87500000000000   0.12500000000000   0.50000000000000
    0.62500000000000   0.50000000000000   0.57031250000000   0.53125000000000
    0.40625000000000   0.59375000000000   0.59375000000000   0.71875000000000
    0.50000000000000   0.12500000000000   0.12500000000000   0.18750000000000
    0.21875000000000   0.78125000000000   0.68750000000000   0.78125000000000
    0.75000000000000   0.90625000000000   0.31250000000000   0.28125000000000
    0.59375000000000   0.46875000000000   0.37500000000000   0.35937500000000
    0.50000000000000   0.88750000000000   0.80000000000000   0.67500000000000
    0.65000000000000   0.81875000000000   0.63750000000000   0.55000000000000
    0.46250000000000   0.96250000000000   0.96250000000000   0.87500000000000
    0.37500000000000   0.37500000000000    1.0000000000000    1.0000000000000
     1.0000000000000   0.37500000000000   0.34375000000000   0.62500000000000
    0.62500000000000   0.59375000000000   0.68750000000000   0.71875000000000
    0.62500000000000   0.65625000000000   0.70312500000000   0.46875000000000
    0.54687500000000   0.60937500000000   0.67187500000000   0.37500000000000
    0.35937500000000   0.65625000000000   0.73437500000000   0.76562500000000
    0.64062500000000   0.73437500000000   0.54687500000000   0.42187500000000
    0.54687500000000   0.85937500000000   0.79687500000000   0.51562500000000
    0.29687500000000   0.48437500000000   0.54687500000000   0.67500000000000
    0.56875000000000   0.25000000000000   0.31250000000000   0.43750000000000
    0.25000000000000   0.75000000000000    6.2500000000000e-02   0.56250000000000
    0.81250000000000   0.18750000000000   0.58750000000000   0.58750000000000
    0.83750000000000   0.10625000000000   0.71875000000000   0.90000000000000
    0.40000000000000   0.57812500000000   0.37500000000000   0.46250000000000
    0.59375000000000   0.61718750000000   0.40625000000000   0.43750000000000
    0.81250000000000   0.75000000000000    9.3750000000000e-02   0.12500000000000
    0.59375000000000   0.62500000000000   0.93750000000000   0.46875000000000
    0.65625000000000   0.37500000000000   0.43750000000000   0.93750000000000
     1.0000000000000   0.93750000000000   0.93750000000000   0.68750000000000
    0.87500000000000   0.50000000000000   0.81250000000000   0.56640625000000
    0.50390625000000   0.34375000000000   0.39843750000000   0.36718750000000
    0.47656250000000   0.45312500000000   0.60937500000000   0.57812500000000
    0.53906250000000   0.42187500000000   0.70312500000000   0.62500000000000
    0.63281250000000   0.64062500000000   0.57812500000000   0.48437500000000
    0.75000000000000   0.73437500000000   0.82812500000000   0.67187500000000
    0.59375000000000   0.48437500000000   0.94375000000000   0.54375000000000
    0.33750000000000   0.32500000000000   0.60156250000000   0.65625000000000
    0.62500000000000   0.76562500000000   0.81250000000000   0.78125000000000
    0.68750000000000   0.40625000000000   0.43750000000000   0.46875000000000
    0.59375000000000   0.56250000000000   0.53125000000000   0.50000000000000
    0.46875000000000   0.35937500000000   0.37500000000000   0.40625000000000
    0.34375000000000   0.50000000000000   0.31250000000000   0.90625000000000
    0.65625000000000   0.79687500000000   0.84375000000000   0.78125000000000
    0.81250000000000   0.78125000000000   0.28125000000000   0.53125000000000
    0.84375000000000   0.87500000000000   0.90625000000000   0.59375000000000
    0.50000000000000   0.71875000000000   0.43750000000000   0.68750000000000
    0.71875000000000   0.71875000000000   0.62500000000000   0.65625000000000
    0.75000000000000   0.15625000000000   0.46875000000000   0.71875000000000
    0.53125000000000   0.53125000000000   0.56250000000000   0.18750000000000
    0.78125000000000   0.62500000000000   0.37500000000000   0.45000000000000
    0.43750000000000   0.31250000000000   0.31250000000000   0.31250000000000
    0.33750000000000   0.36875000000000   0.40625000000000   0.75000000000000
    0.43750000000000   0.87500000000000   0.87500000000000   0.53125000000000
     6.2500000000000e-02   0.62500000000000   0.65625000000000   0.78125000000000
    0.84375000000000    4.6875000000000e-02    6.2500000000000e-02
    0.31250000000000   0.20312500000000   0.54687500000000   0.70312500000000
    0.64062500000000   0.75000000000000   0.67187500000000   0.78125000000000
    0.85937500000000   0.79687500000000   0.73437500000000   0.45312500000000
    0.59375000000000   0.51562500000000   0.45312500000000   0.50000000000000
    0.39062500000000   0.79687500000000   0.70312500000000   0.64062500000000
    0.64062500000000   0.56250000000000   0.54687500000000   0.54687500000000
    0.64062500000000   0.58593750000000   0.57812500000000   0.68750000000000
    0.75000000000000   0.73437500000000   0.73437500000000   0.54687500000000
    0.53125000000000   0.57812500000000   0.39062500000000   0.48437500000000
    0.54687500000000   0.65625000000000   0.44375000000000   0.98125000000000
    0.98125000000000   0.48437500000000   0.84375000000000   0.87500000000000
    0.81250000000000   0.84375000000000   0.93750000000000   0.43750000000000
    0.90625000000000   0.53906250000000   0.55468750000000    1.0000000000000
    0.51562500000000   0.89062500000000   0.39062500000000   0.39062500000000
    0.59375000000000   0.60937500000000   0.81250000000000   0.79687500000000
    0.67187500000000   0.57812500000000   0.69531250000000   0.57031250000000
    0.53125000000000   0.51562500000000   0.55468750000000   0.57031250000000
    0.75781250000000   0.77343750000000   0.66406250000000   0.50781250000000
    0.58593750000000   0.63281250000000   0.60156250000000   0.69531250000000
    0.66406250000000   0.73437500000000   0.65625000000000   0.67968750000000
    0.71093750000000   0.76562500000000   0.80468750000000   0.77343750000000
    0.36718750000000   0.33593750000000   0.47656250000000   0.52343750000000
    0.49218750000000   0.42968750000000   0.42968750000000   0.74218750000000
    0.61718750000000   0.52343750000000   0.39843750000000   0.52343750000000
    0.49218750000000   0.67968750000000   0.46093750000000   0.66796875000000
    0.53125000000000   0.56250000000000   0.62500000000000   0.73437500000000
    0.75000000000000   0.71875000000000   0.75000000000000   0.78125000000000
    0.59375000000000   0.71875000000000   0.71875000000000   0.67187500000000
    0.65625000000000   0.41875000000000   0.41875000000000   0.40000000000000
    0.40000000000000   0.42187500000000    5.3125000000000e-02   0.70312500000000
    0.68750000000000   0.67578125000000   0.56640625000000   0.53906250000000
    0.55859375000000   0.64453125000000   0.90625000000000   0.81250000000000
    0.78125000000000   0.45000000000000   0.38750000000000   0.65234375000000
    0.66015625000000   0.56250000000000   0.58984375000000   0.40625000000000
    0.43750000000000   0.75000000000000   0.87500000000000   0.68750000000000
    0.70312500000000   0.70312500000000   0.56250000000000   0.54687500000000
    0.56250000000000   0.57812500000000   0.54687500000000   0.56250000000000
    0.64062500000000   0.64062500000000   0.65625000000000   0.40625000000000
    0.81250000000000   0.75000000000000   0.73437500000000   0.71875000000000
    0.56250000000000   0.65625000000000   0.62500000000000   0.56250000000000
    0.57812500000000   0.37500000000000   0.34375000000000   0.35937500000000
    0.35937500000000   0.39062500000000   0.35000000000000   0.78125000000000
    0.79687500000000   0.78125000000000   0.40625000000000   0.42187500000000
    0.34375000000000   0.59375000000000   0.68750000000000   0.81250000000000
    0.71093750000000   0.71875000000000   0.71875000000000   0.56250000000000
    0.84375000000000   0.84375000000000   0.84375000000000   0.93750000000000
    0.96875000000000   0.96875000000000   0.51562500000000   0.46875000000000
    0.46875000000000    1.0000000000000   0.90625000000000   0.93750000000000
    0.40625000000000   0.46875000000000   0.40625000000000   0.59375000000000
    0.51562500000000   0.50390625000000   0.54296875000000   0.55078125000000
    0.74218750000000   0.40234375000000   0.58203125000000   0.41796875000000
    0.35937500000000   0.38281250000000   0.39843750000000   0.47656250000000
    0.50781250000000   0.55468750000000   0.60937500000000   0.60156250000000
    0.64843750000000   0.55468750000000   0.58593750000000   0.72656250000000
    0.71093750000000   0.67968750000000   0.57031250000000   0.41406250000000
    0.37890625000000   0.66406250000000   0.75781250000000   0.47656250000000
    0.46093750000000   0.44921875000000   0.45703125000000   0.44531250000000
    0.42968750000000   0.78906250000000   0.75781250000000   0.61718750000000
    0.52343750000000   0.67968750000000   0.50781250000000   0.75781250000000
    0.72656250000000   0.35000000000000   0.53125000000000   0.53906250000000
    0.49218750000000   0.64062500000000   0.66406250000000   0.46875000000000
    0.50000000000000   0.48437500000000   0.71875000000000   0.73437500000000
    0.73437500000000   0.53125000000000   0.53125000000000   0.67187500000000
    0.79687500000000   0.82812500000000   0.75000000000000   0.72656250000000
    0.77343750000000   0.75000000000000   0.76562500000000   0.42187500000000
    0.40625000000000   0.45312500000000   0.48437500000000   0.70312500000000
    0.68750000000000   0.65625000000000   0.38281250000000   0.40625000000000
    0.60937500000000   0.59375000000000   0.67187500000000   0.71875000000000
    0.65625000000000   0.64843750000000   0.62500000000000   0.58593750000000
    0.57812500000000   0.48437500000000   0.46093750000000   0.45312500000000
    0.43750000000000   0.35156250000000   0.37500000000000   0.57031250000000
    0.90625000000000   0.95312500000000   0.82812500000000   0.85937500000000
    0.84375000000000   0.70312500000000   0.70312500000000   0.35937500000000
    0.59375000000000   0.57812500000000   0.79687500000000   0.68750000000000
    0.76562500000000   0.51562500000000   0.53125000000000   0.53906250000000
    0.56250000000000   0.70312500000000   0.73437500000000   0.57812500000000
    0.50000000000000   0.76562500000000   0.77343750000000   0.75000000000000
    0.43750000000000   0.40625000000000   0.50000000000000   0.70312500000000
    0.73437500000000   0.57031250000000   0.78125000000000   0.80468750000000
    0.79687500000000   0.64843750000000   0.67187500000000   0.71875000000000
    0.46875000000000   0.85937500000000   0.87500000000000   0.89062500000000
    0.34375000000000   0.78125000000000   0.87500000000000   0.89843750000000
    0.92187500000000   0.88281250000000   0.90625000000000   0.92187500000000
    0.62500000000000   0.65625000000000   0.53125000000000   0.68554687500000
    0.87500000000000   0.85937500000000   0.82812500000000   0.89062500000000
    0.54687500000000   0.56250000000000   0.51562500000000   0.60937500000000
    0.62500000000000   0.64062500000000   0.35625000000000   0.34375000000000
    0.37500000000000   0.37500000000000   0.73437500000000   0.71875000000000
    0.73437500000000   0.75000000000000   0.90625000000000   0.87500000000000
    0.90625000000000   0.87500000000000   0.93750000000000   0.42187500000000
    0.43750000000000   0.40625000000000   0.40625000000000   0.39062500000000
    0.37500000000000   0.34375000000000   0.76562500000000   0.60937500000000
    0.67187500000000   0.83593750000000   0.85937500000000   0.82812500000000
    0.32812500000000   0.35937500000000   0.34375000000000   0.35625000000000
    0.34062500000000   0.34062500000000   0.37187500000000   0.37187500000000
    0.35625000000000   0.34375000000000   0.76562500000000   0.79687500000000
    0.66796875000000   0.68945312500000   0.34375000000000   0.82031250000000
    0.82812500000000   0.80078125000000   0.78906250000000   0.78125000000000
    0.75781250000000   0.37500000000000   0.35937500000000   0.36718750000000
    0.64062500000000   0.88281250000000   0.82031250000000   0.68750000000000
    0.67968750000000   0.66406250000000   0.64062500000000   0.61718750000000
    0.77343750000000   0.72656250000000   0.74218750000000   0.73437500000000
    0.75000000000000   0.50781250000000   0.46875000000000   0.43750000000000
    0.46875000000000   0.53125000000000   0.53906250000000   0.52343750000000
    0.58593750000000   0.55468750000000   0.54687500000000   0.74218750000000
    0.52343750000000   0.53906250000000   0.53125000000000   0.55468750000000
    0.66406250000000   0.58593750000000   0.63281250000000   0.67968750000000
    0.71875000000000   0.72656250000000   0.77343750000000   0.73437500000000
    0.71093750000000   0.78125000000000   0.78906250000000   0.75781250000000
    0.72265625000000   0.75000000000000   0.74218750000000   0.68750000000000
    0.81250000000000   0.82031250000000   0.64843750000000   0.58593750000000
    0.69531250000000   0.72656250000000   0.60156250000000   0.51562500000000
    0.42187500000000   0.41406250000000   0.67968750000000   0.37109375000000
    0.37500000000000   0.38281250000000   0.69531250000000   0.69531250000000
    0.65625000000000   0.64062500000000   0.66406250000000   0.48437500000000
    0.49218750000000   0.50000000000000   0.63281250000000   0.64843750000000
    0.40625000000000   0.92187500000000   0.85937500000000   0.49218750000000
    0.46875000000000   0.68750000000000   0.69531250000000   0.59375000000000
    0.54687500000000   0.57031250000000   0.37500000000000   0.50781250000000
    0.35937500000000   0.36718750000000   0.36718750000000   0.84375000000000
    0.84375000000000   0.83593750000000   0.83593750000000   0.60156250000000
    0.58593750000000   0.74218750000000   0.38281250000000   0.53906250000000
    0.67968750000000   0.53906250000000   0.63281250000000   0.71093750000000
    0.69140625000000   0.61328125000000   0.51171875000000   0.67578125000000
    0.50390625000000   0.56640625000000   0.72656250000000   0.78125000000000
    0.78906250000000   0.80078125000000   0.75781250000000   0.76953125000000
    0.78515625000000   0.74609375000000   0.55078125000000   0.53515625000000
    0.51562500000000   0.51953125000000   0.65625000000000   0.61718750000000
    0.61718750000000   0.62109375000000   0.65234375000000   0.63671875000000
    0.37890625000000   0.35156250000000   0.62890625000000   0.88671875000000
    0.75781250000000   0.76171875000000   0.77734375000000   0.60546875000000
    0.58984375000000   0.56640625000000   0.70703125000000   0.44140625000000
    0.41015625000000   0.41015625000000   0.80859375000000   0.49609375000000
    0.43359375000000   0.54296875000000   0.51953125000000   0.52734375000000
    0.65234375000000   0.57421875000000   0.48046875000000   0.66796875000000
    0.69921875000000   0.56054687500000   0.45507812500000   0.43945312500000
    0.65625000000000   0.64257812500000   0.43750000000000   0.43847656250000
    0.82812500000000   0.33437500000000   0.32500000000000   0.33437500000000
    0.39687500000000   0.77343750000000   0.69531250000000   0.67187500000000
    0.69531250000000   0.67968750000000   0.43750000000000   0.46289062500000
    0.43554687500000   0.56445312500000   0.52734375000000   0.53710937500000
    0.40039062500000   0.66601562500000   0.55273437500000   0.32500000000000
    0.33437500000000   0.54101562500000   0.69531250000000   0.53906250000000
    0.55468750000000   0.54687500000000   0.37500000000000   0.55468750000000
    0.87500000000000   0.35156250000000   0.35156250000000   0.35742187500000
    0.35937500000000   0.36718750000000   0.74218750000000   0.75000000000000
    0.61718750000000   0.59375000000000   0.55468750000000   0.62500000000000
    0.82812500000000   0.81250000000000   0.44921875000000   0.44238281250000
    0.64062500000000   0.60937500000000   0.73437500000000   0.53125000000000
    0.64062500000000   0.62500000000000   0.57812500000000   0.35937500000000
    0.35937500000000   0.48437500000000   0.39062500000000   0.42187500000000
    0.54687500000000   0.82031250000000   0.79687500000000   0.48437500000000
    0.42187500000000   0.42187500000000   0.82812500000000   0.54687500000000
    0.67187500000000   0.39062500000000   0.45312500000000   0.35937500000000
    0.36132812500000   0.57226562500000   0.45507812500000   0.53906250000000
    0.54882812500000   0.55468750000000   0.58203125000000   0.36328125000000
    0.53906250000000   0.53515625000000   0.41796875000000   0.48828125000000
    0.51171875000000   0.49609375000000   0.56640625000000   0.42578125000000
    0.48437500000000   0.48828125000000   0.50390625000000   0.51953125000000
    0.38671875000000   0.58984375000000   0.63671875000000   0.59375000000000
    0.58203125000000   0.61328125000000   0.64453125000000   0.50390625000000
    0.51171875000000   0.54296875000000   0.58984375000000   0.54296875000000
    0.52734375000000   0.68359375000000   0.64062500000000   0.62500000000000
    0.63671875000000   0.54296875000000   0.75390625000000   0.37109375000000
    0.85742187500000   0.85156250000000   0.87890625000000   0.80859375000000
    0.77734375000000   0.53515625000000   0.46484375000000   0.45312500000000
    0.39453125000000   0.38281250000000   0.37500000000000   0.55078125000000
    0.53906250000000   0.53125000000000   0.63281250000000   0.49023437500000
    0.50000000000000   0.50000000000000   0.48437500000000   0.49218750000000
    0.55859375000000   0.57031250000000   0.54687500000000   0.56250000000000
    0.54687500000000   0.56640625000000   0.55859375000000   0.55468750000000
    0.54296875000000   0.58593750000000   0.57031250000000   0.47460937500000
    0.46093750000000   0.47656250000000   0.48046875000000   0.48437500000000
    0.49218750000000   0.42187500000000   0.56054687500000   0.55468750000000
    0.58593750000000   0.48437500000000   0.50000000000000   0.40625000000000
    0.57812500000000   0.46484375000000   0.46875000000000   0.45312500000000
    0.53906250000000   0.45312500000000   0.47656250000000   0.61718750000000
    0.64062500000000   0.63281250000000   0.52343750000000   0.38281250000000
    0.55859375000000   0.56250000000000   0.54687500000000   0.37500000000000
    0.37500000000000   0.39843750000000   0.39062500000000   0.35937500000000
    0.35937500000000   0.35937500000000   0.57812500000000   0.56250000000000
    0.48437500000000   0.46875000000000   0.51562500000000   0.50000000000000
    0.49609375000000   0.50781250000000   0.52343750000000   0.52343750000000
    0.54296875000000   0.56640625000000   0.54687500000000   0.53906250000000
    0.51562500000000   0.36328125000000   0.44531250000000   0.62109375000000
    0.60546875000000   0.54687500000000   0.46875000000000   0.48437500000000
    0.49609375000000   0.38281250000000   0.44335937500000   0.44726562500000
    0.44433593750000   0.48144531250000   0.46191406250000   0.44921875000000
    0.59179687500000   0.57031250000000   0.59375000000000   0.57031250000000
    0.58203125000000   0.59765625000000   0.56250000000000   0.57031250000000
    0.60937500000000   0.59375000000000   0.56640625000000   0.56933593750000
    0.55664062500000   0.55859375000000   0.55273437500000   0.43945312500000
    0.44140625000000   0.44335937500000   0.51367187500000   0.45605468750000
    0.46679687500000   0.45800781250000   0.45312500000000   0.44824218750000
    0.44433593750000   0.45410156250000   0.44628906250000   0.55175781250000
    0.44677734375000   0.46972656250000   0.45605468750000   0.44238281250000
    0.54882812500000   0.45117187500000   0.45263671875000   0.48828125000000
    0.47753906250000   0.48046875000000   0.47119140625000   0.42968750000000
    0.48242187500000   0.48437500000000   0.47656250000000   0.48730468750000
    0.49218750000000   0.49414062500000   0.48730468750000   0.49218750000000
    0.49218750000000  0.    1.0000000000000    1.0000000000000   0.75000000000000
    0.50000000000000    1.0000000000000   0.85000000000000   0.50000000000000
    0.37500000000000   0.50000000000000   0.25000000000000   0.42500000000000
    0.75000000000000   0.68750000000000   0.87500000000000   0.62500000000000
    0.75000000000000   0.75000000000000   0.62500000000000   0.25000000000000
    0.25000000000000   0.18750000000000   0.56250000000000   0.56250000000000
    0.43750000000000   0.75000000000000   0.92500000000000   0.68750000000000
    0.71875000000000   0.65625000000000   0.50000000000000   0.12500000000000
    0.62500000000000   0.37500000000000   0.21250000000000   0.80000000000000
    0.75000000000000   0.92500000000000   0.50000000000000   0.43750000000000
    0.56250000000000   0.87500000000000   0.75000000000000    1.0000000000000
     1.0000000000000   0.46875000000000   0.81250000000000   0.84375000000000
    0.53125000000000   0.53125000000000   0.31250000000000   0.37500000000000
    0.43750000000000   0.31250000000000   0.68750000000000   0.56250000000000
    0.87500000000000   0.62500000000000   0.68750000000000   0.80000000000000
    0.67500000000000   0.65000000000000   0.62500000000000   0.67500000000000
    0.62500000000000   0.37500000000000   0.37500000000000   0.93750000000000
    0.87500000000000   0.81250000000000   0.81250000000000   0.75000000000000
    0.50000000000000   0.12500000000000   0.68750000000000    9.3750000000000e-02
    0.12500000000000   0.46875000000000   0.46875000000000   0.40625000000000
    0.78125000000000   0.75000000000000   0.71875000000000   0.65625000000000
    0.59375000000000   0.71875000000000   0.87500000000000   0.59375000000000
    0.53125000000000   0.59375000000000   0.59375000000000   0.31250000000000
    0.28125000000000   0.34375000000000   0.37500000000000   0.53125000000000
    0.50000000000000   0.37500000000000   0.25000000000000   0.87500000000000
    0.46875000000000   0.50000000000000   0.58750000000000   0.88750000000000
    0.96250000000000   0.96250000000000   0.81250000000000   0.76562500000000
     1.0000000000000    1.0000000000000    1.0000000000000   0.96875000000000
    0.34375000000000   0.56250000000000   0.59375000000000   0.78125000000000
    0.62500000000000   0.65625000000000   0.87500000000000   0.87500000000000
    0.90625000000000   0.84375000000000   0.70312500000000   0.54687500000000
    0.85937500000000   0.40625000000000   0.42187500000000   0.57812500000000
    0.79687500000000   0.71875000000000   0.65625000000000   0.70312500000000
    0.75000000000000   0.73437500000000   0.28125000000000   0.21875000000000
    0.25000000000000   0.62500000000000   0.50000000000000   0.50000000000000
    0.56250000000000   0.43750000000000    6.2500000000000e-02   0.37500000000000
    0.68750000000000   0.18750000000000   0.83750000000000   0.83750000000000
    0.33750000000000   0.87500000000000   0.85625000000000   0.10625000000000
    0.31875000000000   0.71875000000000   0.81250000000000   0.81250000000000
    0.81250000000000   0.33750000000000   0.90000000000000   0.80000000000000
    0.88750000000000   0.46250000000000   0.96250000000000   0.71250000000000
    0.71875000000000   0.81250000000000   0.62500000000000   0.56250000000000
    0.93750000000000   0.90625000000000   0.46875000000000   0.40625000000000
    0.37500000000000   0.78125000000000   0.59375000000000   0.53125000000000
    0.75000000000000    1.0000000000000   0.96250000000000   0.92500000000000
    0.93750000000000   0.87500000000000   0.98125000000000    1.0000000000000
     1.0000000000000   0.93750000000000    1.0000000000000   0.43750000000000
    0.75000000000000   0.81250000000000   0.23437500000000   0.56250000000000
    0.51562500000000   0.55468750000000   0.45312500000000   0.48437500000000
    0.76562500000000   0.76562500000000   0.65625000000000   0.62500000000000
    0.64062500000000   0.67187500000000   0.34375000000000   0.48437500000000
    0.51562500000000   0.57812500000000   0.64062500000000   0.64062500000000
    0.50000000000000   0.54687500000000   0.59375000000000   0.62500000000000
    0.43750000000000   0.28125000000000   0.34375000000000   0.59375000000000
    0.40625000000000   0.43750000000000   0.50000000000000   0.34375000000000
    0.40625000000000   0.64062500000000   0.68750000000000   0.60937500000000
    0.59375000000000   0.56250000000000   0.75000000000000   0.93750000000000
    0.81250000000000   0.15625000000000   0.64062500000000   0.68750000000000
    0.71875000000000   0.62500000000000   0.59375000000000   0.84375000000000
    0.65625000000000   0.78125000000000   0.65625000000000   0.68750000000000
    0.78125000000000   0.90625000000000   0.64062500000000   0.65625000000000
    0.68750000000000   0.81250000000000   0.94375000000000   0.37500000000000
    0.31250000000000   0.31250000000000   0.92187500000000   0.96875000000000
    0.93750000000000   0.90625000000000   0.81250000000000   0.87500000000000
    0.81250000000000   0.81250000000000   0.81250000000000   0.81250000000000
    0.87500000000000   0.93750000000000   0.93750000000000   0.93750000000000
    0.71875000000000   0.71875000000000   0.68750000000000   0.68750000000000
    0.68750000000000   0.86250000000000   0.25000000000000    6.2500000000000e-02
    0.79687500000000   0.84375000000000   0.78125000000000   0.18750000000000
    0.81250000000000   0.79687500000000    6.2500000000000e-02    4.6875000000000e-02
    0.23437500000000   0.25000000000000   0.70312500000000   0.93750000000000
    0.87500000000000   0.89062500000000   0.96250000000000   0.93750000000000
    0.31250000000000   0.31250000000000   0.34375000000000   0.37500000000000
    0.40625000000000   0.37500000000000   0.85937500000000   0.73437500000000
    0.75000000000000   0.76562500000000   0.64062500000000   0.57812500000000
    0.60937500000000   0.20312500000000   0.18750000000000   0.65625000000000
    0.67187500000000   0.71875000000000   0.70312500000000   0.70312500000000
    0.73437500000000   0.64062500000000   0.45312500000000   0.45312500000000
    0.50000000000000   0.54687500000000   0.64062500000000   0.67187500000000
    0.48437500000000   0.39062500000000   0.45312500000000   0.67187500000000
    0.54687500000000   0.54687500000000   0.60937500000000   0.70312500000000
    0.73437500000000   0.10937500000000   0.17968750000000   0.90625000000000
    0.94375000000000   0.98125000000000   0.85625000000000   0.94375000000000
    0.81875000000000   0.84375000000000   0.43750000000000   0.75781250000000
    0.72656250000000   0.71093750000000   0.83593750000000   0.60156250000000
    0.62500000000000   0.64843750000000   0.75781250000000    1.0000000000000
     1.0000000000000   0.76562500000000   0.65625000000000   0.67187500000000
    0.67187500000000   0.70312500000000   0.39062500000000   0.34375000000000
    0.89062500000000   0.85937500000000   0.81250000000000   0.79687500000000
    0.75000000000000   0.73437500000000   0.92187500000000   0.75000000000000
    0.71093750000000   0.82812500000000   0.76562500000000   0.78906250000000
    0.35937500000000   0.72656250000000   0.73437500000000   0.75000000000000
    0.74218750000000   0.66406250000000   0.66406250000000   0.65625000000000
    0.66406250000000   0.60156250000000   0.75000000000000   0.73437500000000
    0.74218750000000   0.82812500000000   0.81250000000000   0.82812500000000
    0.85156250000000   0.83593750000000   0.39062500000000   0.39062500000000
    0.35937500000000   0.32812500000000   0.92968750000000   0.23437500000000
    0.80468750000000   0.62500000000000   0.60937500000000   0.64843750000000
    0.57031250000000   0.64843750000000   0.42968750000000   0.61718750000000
    0.73437500000000   0.39062500000000   0.77343750000000   0.62500000000000
    0.56250000000000   0.75000000000000   0.64062500000000   0.62500000000000
    0.73437500000000   0.71875000000000   0.78125000000000   0.56250000000000
    0.68750000000000   0.53125000000000   0.59375000000000    3.1250000000000e-02
    0.78125000000000   0.78125000000000   0.59375000000000   0.46875000000000
    0.65625000000000   0.88125000000000    5.3125000000000e-02   0.80312500000000
    0.85937500000000   0.73437500000000   0.79687500000000   0.73437500000000
    0.35937500000000   0.85937500000000   0.68750000000000   0.68750000000000
    0.78125000000000   0.84375000000000   0.78125000000000   0.67187500000000
    0.81250000000000   0.79687500000000   0.75000000000000   0.78125000000000
    0.29375000000000   0.88750000000000   0.72656250000000   0.32812500000000
    0.57812500000000   0.55078125000000   0.72265625000000   0.63281250000000
    0.67187500000000   0.62500000000000   0.60937500000000   0.75000000000000
    0.42187500000000   0.42187500000000   0.45312500000000   0.44921875000000
    0.46875000000000   0.60937500000000   0.90625000000000   0.84375000000000
    0.40625000000000   0.87500000000000   0.96875000000000   0.95312500000000
    0.68750000000000   0.71875000000000   0.31250000000000   0.35625000000000
    0.32500000000000   0.34375000000000   0.37500000000000   0.64062500000000
    0.79687500000000   0.39062500000000   0.54687500000000   0.70312500000000
    0.34375000000000   0.85625000000000   0.84375000000000   0.87500000000000
    0.59375000000000   0.95000000000000   0.91875000000000   0.96875000000000
    0.93750000000000   0.98125000000000   0.93125000000000   0.96250000000000
    0.79375000000000   0.82500000000000   0.78125000000000   0.81250000000000
    0.62890625000000   0.60937500000000   0.60156250000000   0.47656250000000
    0.52343750000000   0.73437500000000   0.75781250000000   0.66406250000000
    0.51562500000000   0.50000000000000   0.50781250000000   0.52343750000000
    0.60937500000000   0.59375000000000   0.60156250000000   0.61718750000000
    0.80468750000000   0.78906250000000   0.64843750000000   0.64843750000000
    0.42968750000000   0.71093750000000   0.67968750000000   0.58593750000000
    0.63281250000000   0.57031250000000   0.78125000000000   0.91250000000000
    0.60937500000000   0.59375000000000   0.65625000000000   0.67187500000000
    0.44531250000000   0.42187500000000   0.40625000000000   0.57812500000000
    0.59375000000000   0.56250000000000   0.57812500000000   0.59375000000000
    0.57812500000000   0.57812500000000   0.58593750000000   0.55468750000000
    0.57031250000000   0.57812500000000   0.53906250000000   0.53125000000000
    0.50000000000000   0.74218750000000   0.75000000000000   0.50000000000000
    0.63281250000000   0.62500000000000   0.68750000000000   0.53125000000000
    0.35937500000000   0.96875000000000   0.40625000000000   0.56250000000000
    0.59375000000000   0.78125000000000   0.68750000000000   0.65625000000000
    0.40625000000000   0.42968750000000   0.42187500000000   0.40625000000000
    0.76562500000000   0.37500000000000   0.42187500000000   0.39062500000000
    0.35937500000000   0.84375000000000   0.71875000000000   0.67187500000000
    0.70312500000000   0.68750000000000   0.92187500000000   0.70312500000000
    0.95312500000000   0.84375000000000   0.65625000000000   0.78125000000000
    0.72656250000000   0.75000000000000   0.71875000000000   0.73437500000000
    0.53125000000000   0.71875000000000   0.57812500000000   0.82812500000000
    0.29375000000000   0.32500000000000   0.32500000000000   0.77734375000000
    0.35625000000000   0.32500000000000   0.34375000000000   0.35000000000000
    0.35625000000000   0.34375000000000   0.34375000000000   0.75000000000000
    0.73437500000000   0.37500000000000   0.40625000000000   0.39062500000000
    0.37500000000000   0.40625000000000   0.78125000000000   0.96093750000000
    0.98437500000000   0.95312500000000   0.34375000000000   0.93750000000000
    0.90625000000000   0.78125000000000   0.71875000000000   0.73437500000000
    0.85937500000000   0.84375000000000   0.37500000000000   0.83593750000000
    0.85937500000000   0.82812500000000   0.71875000000000   0.66406250000000
    0.67968750000000   0.67187500000000   0.40625000000000   0.39062500000000
    0.37500000000000   0.37500000000000   0.84375000000000   0.85156250000000
    0.71875000000000   0.72656250000000   0.96875000000000   0.98125000000000
    0.96875000000000   0.42187500000000   0.40625000000000   0.35000000000000
    0.34375000000000   0.57031250000000   0.58593750000000   0.51562500000000
    0.55468750000000   0.74218750000000   0.93750000000000   0.94531250000000
    0.66406250000000   0.83593750000000   0.84765625000000   0.85937500000000
    0.69531250000000   0.67968750000000   0.72656250000000   0.60156250000000
    0.58593750000000   0.63281250000000   0.64062500000000   0.61718750000000
    0.60156250000000   0.58593750000000   0.64843750000000   0.67968750000000
    0.66406250000000   0.64843750000000   0.61718750000000   0.60156250000000
    0.60156250000000   0.61718750000000   0.58593750000000   0.63281250000000
    0.63281250000000   0.61718750000000   0.44531250000000   0.72656250000000
    0.53906250000000   0.80468750000000   0.79687500000000   0.81250000000000
    0.80468750000000   0.66406250000000   0.81250000000000   0.82031250000000
    0.74218750000000   0.74218750000000   0.70312500000000   0.70703125000000
    0.71875000000000   0.73828125000000   0.74218750000000   0.63281250000000
    0.64843750000000   0.50000000000000   0.55468750000000   0.40625000000000
    0.95312500000000   0.92187500000000   0.85937500000000   0.73046875000000
    0.35937500000000   0.64453125000000   0.87500000000000   0.85937500000000
    0.87500000000000   0.83593750000000   0.84375000000000   0.85546875000000
    0.83593750000000   0.71093750000000   0.71289062500000   0.82031250000000
    0.82031250000000   0.39062500000000   0.96093750000000   0.35937500000000
    0.84375000000000   0.84375000000000   0.83593750000000   0.83593750000000
    0.85156250000000   0.35937500000000   0.35937500000000   0.36718750000000
    0.75000000000000   0.74218750000000   0.75781250000000   0.39843750000000
    0.82421875000000   0.78906250000000   0.78125000000000   0.78906250000000
    0.80078125000000   0.78515625000000   0.59375000000000   0.56640625000000
    0.59765625000000   0.61718750000000   0.87500000000000   0.85546875000000
    0.90625000000000   0.91406250000000   0.92578125000000   0.35156250000000
    0.41406250000000   0.38281250000000   0.66796875000000   0.68750000000000
    0.66796875000000   0.65234375000000   0.72656250000000   0.51953125000000
    0.58984375000000   0.79296875000000   0.49609375000000   0.75781250000000
    0.74218750000000   0.46679687500000   0.45898437500000   0.53320312500000
    0.57812500000000   0.82812500000000   0.87500000000000   0.89062500000000
    0.60937500000000   0.57812500000000   0.76562500000000   0.77343750000000
    0.76562500000000   0.82812500000000   0.33437500000000   0.33437500000000
    0.32500000000000   0.33437500000000   0.86718750000000   0.92968750000000
    0.36718750000000   0.39843750000000   0.38281250000000   0.88281250000000
    0.86718750000000   0.84375000000000   0.85937500000000   0.75390625000000
    0.75000000000000   0.33437500000000   0.31562500000000   0.36562500000000
    0.35000000000000   0.86328125000000   0.35156250000000   0.35156250000000
    0.38281250000000   0.56054687500000   0.73632812500000   0.72460937500000
    0.84375000000000   0.83593750000000   0.81250000000000   0.71875000000000
    0.75000000000000   0.47656250000000   0.46875000000000   0.95312500000000
    0.46093750000000   0.44531250000000   0.42968750000000   0.61718750000000
    0.71875000000000   0.71093750000000   0.59375000000000   0.52343750000000
    0.67187500000000   0.68750000000000   0.35937500000000   0.35937500000000
    0.35937500000000   0.39062500000000   0.42187500000000   0.61132812500000
    0.51953125000000   0.61328125000000   0.63671875000000   0.64453125000000
    0.53515625000000   0.53906250000000   0.55664062500000   0.57421875000000
    0.60937500000000   0.59765625000000   0.71484375000000   0.73828125000000
    0.73242187500000   0.73046875000000   0.54296875000000   0.58984375000000
    0.63671875000000   0.42578125000000   0.33125000000000   0.33125000000000
    0.62500000000000   0.53125000000000   0.59375000000000   0.60937500000000
    0.48437500000000   0.50000000000000   0.49218750000000   0.48437500000000
    0.57812500000000   0.35156250000000   0.36718750000000   0.38281250000000
    0.39843750000000   0.42187500000000   0.36718750000000   0.37500000000000
    0.38281250000000   0.62500000000000   0.50000000000000   0.50781250000000
    0.52343750000000   0.52734375000000   0.52343750000000   0.53125000000000
    0.52734375000000   0.53125000000000   0.54296875000000   0.55078125000000
    0.53906250000000   0.38281250000000   0.57812500000000   0.62500000000000
    0.62500000000000   0.58593750000000   0.37500000000000   0.37500000000000
    0.39843750000000   0.39062500000000   0.35937500000000   0.35937500000000
