   7500
     3.2540000000000    8.0536101874017e+26    1.3485229114742e+28
     4.3536582088154e+27    6.2206705363891e+25    4.4446423470853e+27
     8.5594674150874e+27    1.1844864062304e+27    2.1809814656550e+27
     3.2550000000000    8.0300400960719e+26    1.3484372005937e+28
     4.3636453986350e+27    6.2401575527476e+25    4.4339041290311e+27
     8.5616817850458e+27    1.1851565270080e+27    2.1813130872805e+27
     3.2560000000000    8.0056071952998e+26    1.3483631834947e+28
     4.3740303442472e+27    6.2597300037192e+25    4.4231803139620e+27
     8.5638887435021e+27    1.1858269773774e+27    2.1816383898305e+27
     3.2570000000000    7.9803114850852e+26    1.3483006330028e+28
     4.3847925104155e+27    6.2793878893040e+25    4.4124709018779e+27
     8.5660882904562e+27    1.1864977573385e+27    2.1819573733049e+27
     3.2580000000000    7.9541671708125e+26    1.3482501514171e+28
     4.3956498379810e+27    6.2991312095020e+25    4.4017758927790e+27
     8.5682804259083e+27    1.1871688668915e+27    2.1822700377038e+27
     3.2590000000000    7.9274417859692e+26    1.3482128876402e+28
     4.4065125506359e+27    6.3189599643131e+25    4.3910952866652e+27
     8.5704651498582e+27    1.1878403060363e+27    2.1825763830272e+27
     3.2600000000000    7.9002367970868e+26    1.3481887037102e+28
     4.4173806483802e+27    6.3388741537374e+25    4.3804290835366e+27
     8.5726424623061e+27    1.1885120747728e+27    2.1828764092749e+27
     3.2610000000000    7.8725522041653e+26    1.3481775551935e+28
     4.4282541312138e+27    6.3588737777748e+25    4.3697772833930e+27
     8.5748123632518e+27    1.1891841731012e+27    2.1831701293876e+27
     3.2620000000000    7.8444114638295e+26    1.3481794420903e+28
     4.4391329991369e+27    6.3789588364254e+25    4.3591398862346e+27
     8.5769748526954e+27    1.1898566010214e+27    2.1834577240048e+27
     3.2630000000000    7.8162297749882e+26    1.3481943596904e+28
     4.4500172521494e+27    6.3991293296892e+25    4.3485168920612e+27
     8.5791299306368e+27    1.1905293585334e+27    2.1837392511855e+27
     3.2640000000000    7.7881596408108e+26    1.3482224026213e+28
     4.4609068902513e+27    6.4193852575661e+25    4.3379083008730e+27
     8.5812775970762e+27    1.1912024456371e+27    2.1840147109296e+27
     3.2650000000000    7.7602010612972e+26    1.3482629908414e+28
     4.4718019134426e+27    6.4397266200562e+25    4.3273141126699e+27
     8.5834178520134e+27    1.1918758623327e+27    2.1842841032373e+27
     3.2660000000000    7.7323540364475e+26    1.3483141645398e+28
     4.4827023217233e+27    6.4601534171595e+25    4.3167343274519e+27
     8.5855506954486e+27    1.1925496086201e+27    2.1845478440621e+27
     3.2670000000000    7.7046185662616e+26    1.3483758079334e+28
     4.4936081150934e+27    6.4806656488759e+25    4.3061689452190e+27
     8.5876761273816e+27    1.1932236844993e+27    2.1848111774332e+27
     3.2680000000000    7.6769946507396e+26    1.3484656752057e+28
     4.5045192935529e+27    6.5012633152055e+25    4.2956179659712e+27
     8.5897941478125e+27    1.1938980899703e+27    2.1850756859885e+27
     3.2690000000000    7.6494822898815e+26    1.3486405358941e+28
     4.5154358571018e+27    6.5219464161482e+25    4.2850813897086e+27
     8.5919047567412e+27    1.1945728250330e+27    2.1853413697280e+27
     3.2700000000000    7.6220814836872e+26    1.3489065413851e+28
     4.5263578057402e+27    6.5427149517041e+25    4.2745592164310e+27
     8.5940079541679e+27    1.1952478896876e+27    2.1856082286517e+27
     3.2710000000000    7.5947922321568e+26    1.3492495467753e+28
     4.5372839404631e+27    6.5635689218732e+25    4.2640514461386e+27
     8.5961037400924e+27    1.1959232839340e+27    2.1858762627596e+27
     3.2720000000000    7.5676145352902e+26    1.3496688221877e+28
     4.5482129181960e+27    6.5845083266554e+25    4.2535580788313e+27
     8.5981921145149e+27    1.1965990077722e+27    2.1861454720518e+27
     3.2730000000000    7.5405483930875e+26    1.3501643678699e+28
     4.5591447378726e+27    6.6055331660508e+25    4.2430791145091e+27
     8.6002730774352e+27    1.1972750612021e+27    2.1864158617636e+27
     3.2740000000000    7.5135938055486e+26    1.3507361838219e+28
     4.5700793994932e+27    6.6266434400594e+25    4.2326145531720e+27
     8.6023466288534e+27    1.1979514442239e+27    2.1866873388819e+27
     3.2750000000000    7.4867507726736e+26    1.3513842700435e+28
     4.5810169030576e+27    6.6478391486811e+25    4.2221643948201e+27
     8.6044127687694e+27    1.1986281568375e+27    2.1869597873175e+27
     3.2760000000000    7.4600192944625e+26    1.3521074334164e+28
     4.5919572485658e+27    6.6691202919160e+25    4.2117286394532e+27
     8.6064711803851e+27    1.1993051990429e+27    2.1872332069433e+27
     3.2770000000000    7.4333993709152e+26    1.3528803247757e+28
     4.6029004360179e+27    6.6904868697640e+25    4.2013072870714e+27
     8.6085209335144e+27    1.1999825708400e+27    2.1875075977594e+27
     3.2780000000000    7.4068910020317e+26    1.3536964363242e+28
     4.6138464654139e+27    6.7119388822253e+25    4.1909003376748e+27
     8.6105619678154e+27    1.2006602722290e+27    2.1877829597658e+27
     3.2790000000000    7.3804941878122e+26    1.3545559651818e+28
     4.6247953367537e+27    6.7334763292996e+25    4.1805077912633e+27
     8.6125942832881e+27    1.2013383032098e+27    2.1880592929623e+27
     3.2800000000000    7.3542089282564e+26    1.3554590131298e+28
     4.6357470500373e+27    6.7550992109872e+25    4.1701296478369e+27
     8.6146178799324e+27    1.2020166637824e+27    2.1883365973492e+27
     3.2810000000000    7.3280352233646e+26    1.3564055847576e+28
     4.6467016052648e+27    6.7768075272879e+25    4.1597659073956e+27
     8.6166327577485e+27    1.2026953539468e+27    2.1886148729263e+27
     3.2820000000000    7.3019730731365e+26    1.3573956800654e+28
     4.6576590024362e+27    6.7986012782017e+25    4.1494166402922e+27
     8.6186389167363e+27    1.2033743737029e+27    2.1888941196936e+27
     3.2830000000000    7.2760224775724e+26    1.3584292990530e+28
     4.6686192415514e+27    6.8204804637287e+25    4.1390844588673e+27
     8.6206363568958e+27    1.2040537230509e+27    2.1891743440399e+27
     3.2840000000000    7.2501834366721e+26    1.3595063622050e+28
     4.6795823226105e+27    6.8424450838689e+25    4.1287706851959e+27
     8.6226253183284e+27    1.2047334019907e+27    2.1894555553052e+27
     3.2850000000000    7.2244559504356e+26    1.3606263197921e+28
     4.6905482456134e+27    6.8644951386223e+25    4.1184753192780e+27
     8.6246063205137e+27    1.2054134105223e+27    2.1897377535699e+27
     3.2860000000000    7.1988400188630e+26    1.3617897866169e+28
     4.7015170105602e+27    6.8866306279888e+25    4.1081983611137e+27
     8.6265793812612e+27    1.2060937486457e+27    2.1900209388341e+27
     3.2870000000000    7.1733356419543e+26    1.3629569956378e+28
     4.7124886174508e+27    6.9088515519685e+25    4.0979398107028e+27
     8.6285445005710e+27    1.2067744163608e+27    2.1903051110978e+27
     3.2880000000000    7.1479428197094e+26    1.3634038134829e+28
     4.7234630662853e+27    6.9311579105613e+25    4.0876996680455e+27
     8.6305016784430e+27    1.2074554136678e+27    2.1905902703610e+27
     3.2890000000000    7.1226615521284e+26    1.3632354920532e+28
     4.7344292221422e+27    6.9535497037673e+25    4.0774779331417e+27
     8.6324513068030e+27    1.2081367405666e+27    2.1908764166237e+27
     3.2900000000000    7.0974918392112e+26    1.3631155583611e+28
     4.7453621765000e+27    6.9760269315865e+25    4.0672746059915e+27
     8.6343940650908e+27    1.2088183970572e+27    2.1911635498859e+27
     3.2910000000000    7.0724336809579e+26    1.3630134475452e+28
     4.7562589737530e+27    6.9985895940188e+25    4.0570896865947e+27
     8.6363299654028e+27    1.2095003831396e+27    2.1914516701475e+27
     3.2920000000000    7.0474870773684e+26    1.3629107980637e+28
     4.7670891467868e+27    7.0212376910643e+25    4.0469231749515e+27
     8.6382590077392e+27    1.2101826988137e+27    2.1917407774087e+27
     3.2930000000000    7.0226694922057e+26    1.3628074148915e+28
     4.7778419882163e+27    7.0439712227229e+25    4.0367750710618e+27
     8.6401811920999e+27    1.2108653440797e+27    2.1920308716693e+27
     3.2940000000000    6.9980132718255e+26    1.3627012360986e+28
     4.7885174980416e+27    7.0667901889948e+25    4.0266453749256e+27
     8.6420965184848e+27    1.2115483189375e+27    2.1923219529295e+27
     3.2950000000000    6.9735191342668e+26    1.3625914814912e+28
     4.7991156762627e+27    7.0896945898797e+25    4.0165340865430e+27
     8.6440049868940e+27    1.2122316233871e+27    2.1926140211891e+27
     3.2960000000000    6.9491870795295e+26    1.3624505900689e+28
     4.8096365228795e+27    7.1126844253779e+25    4.0064412059139e+27
     8.6459065973275e+27    1.2129152574285e+27    2.1929070764483e+27
     3.2970000000000    6.9250047961952e+26    1.3622595509195e+28
     4.8200800378921e+27    7.1357596954892e+25    3.9963667330383e+27
     8.6478013497853e+27    1.2135992210617e+27    2.1932011187069e+27
     3.2980000000000    6.9008912547457e+26    1.3620217253337e+28
     4.8304462213004e+27    7.1589204002136e+25    3.9863106679162e+27
     8.6496892442674e+27    1.2142835142866e+27    2.1934961479650e+27
     3.2990000000000    6.8768316820221e+26    1.3617561218233e+28
     4.8407350731045e+27    7.1821665395513e+25    3.9762730105476e+27
     8.6515702807738e+27    1.2149681371034e+27    2.1937921642226e+27
     3.3000000000000    6.8528260780245e+26    1.3614521181836e+28
     4.8509465933043e+27    7.2054981135021e+25    3.9662537609326e+27
     8.6534444593045e+27    1.2156530895120e+27    2.1940891674797e+27
     3.3010000000000    6.8288744427529e+26    1.3610976433963e+28
     4.8610807818999e+27    7.2289151220660e+25    3.9562529190711e+27
     8.6553117798595e+27    1.2163383715124e+27    2.1943871861682e+27
     3.3020000000000    6.8049767762073e+26    1.3607031187318e+28
     4.8711376388912e+27    7.2524175652431e+25    3.9462704849631e+27
     8.6571722424387e+27    1.2170239831046e+27    2.1946863526216e+27
     3.3030000000000    6.7811330783876e+26    1.3604479129408e+28
     4.8811171642783e+27    7.2760054430334e+25    3.9363064586087e+27
     8.6590258470422e+27    1.2177099242886e+27    2.1949866835512e+27
     3.3040000000000    6.7573433492939e+26    1.3602254519834e+28
     4.8910193580612e+27    7.2996787554369e+25    3.9263608400077e+27
     8.6608725936701e+27    1.2183961950643e+27    2.1952881789571e+27
     3.3050000000000    6.7336075889261e+26    1.3599269454237e+28
     4.9008442202398e+27    7.3234375024535e+25    3.9164336291603e+27
     8.6627124823222e+27    1.2190827954319e+27    2.1955908388393e+27
     3.3060000000000    6.7099257972843e+26    1.3595523932619e+28
     4.9105917508142e+27    7.3472816840832e+25    3.9065248260664e+27
     8.6645455129986e+27    1.2197697253913e+27    2.1958943137814e+27
     3.3070000000000    6.6862979743685e+26    1.3590991040047e+28
     4.9202619497843e+27    7.3712113003262e+25    3.8966344307260e+27
     8.6663716856993e+27    1.2204569849425e+27    2.1961963727831e+27
     3.3080000000000    6.6627241201786e+26    1.3585182695430e+28
     4.9298548171502e+27    7.3952263511823e+25    3.8867624431392e+27
     8.6682086890598e+27    1.2211445740855e+27    2.1964966206548e+27
     3.3090000000000    6.6392042347148e+26    1.3577887433477e+28
     4.9393703529118e+27    7.4193268366515e+25    3.8769088633059e+27
     8.6701504674761e+27    1.2218324928203e+27    2.1967950573965e+27
     3.3100000000000    6.6157383179768e+26    1.3569018868260e+28
     4.9488085570692e+27    7.4435127567339e+25    3.8670736912261e+27
     8.6722108088664e+27    1.2225207411469e+27    2.1970916830083e+27
     3.3110000000000    6.5923263699649e+26    1.3558878533189e+28
     4.9581694296224e+27    7.4677841114295e+25    3.8572569268998e+27
     8.6743897132307e+27    1.2232093190652e+27    2.1973864974901e+27
     3.3120000000000    6.5689683906789e+26    1.3547548845281e+28
     4.9674529705713e+27    7.4921409007383e+25    3.8474585703271e+27
     8.6766871805691e+27    1.2238982265754e+27    2.1976795008420e+27
     3.3130000000000    6.5456643801188e+26    1.3535421112132e+28
     4.9766591799160e+27    7.5165831246602e+25    3.8376786215078e+27
     8.6791032108814e+27    1.2245874636774e+27    2.1979706930639e+27
     3.3140000000000    6.5224143382848e+26    1.3523744978928e+28
     4.9857880576564e+27    7.5411107831952e+25    3.8279170804421e+27
     8.6816378041678e+27    1.2252770303712e+27    2.1982600741559e+27
     3.3150000000000    6.4992182651767e+26    1.3513952742252e+28
     4.9948396037925e+27    7.5657238763435e+25    3.8181739471300e+27
     8.6842909604281e+27    1.2259669266568e+27    2.1985476441180e+27
     3.3160000000000    6.4760761607945e+26    1.3505565043918e+28
     5.0038138183245e+27    7.5904224041049e+25    3.8084492215713e+27
     8.6870626796625e+27    1.2266571525342e+27    2.1988334029500e+27
     3.3170000000000    6.4529880251383e+26    1.3498480924215e+28
     5.0127107012521e+27    7.6152063664794e+25    3.7987429037662e+27
     8.6899170216833e+27    1.2273477080034e+27    2.1991173506522e+27
     3.3180000000000    6.4299538582081e+26    1.3492359003712e+28
     5.0215302525756e+27    7.6400757634672e+25    3.7890549937146e+27
     8.6927787236728e+27    1.2280385930643e+27    2.1993994872243e+27
     3.3190000000000    6.4069736600039e+26    1.3482974609992e+28
     5.0302724722948e+27    7.6650305950680e+25    3.7793854914165e+27
     8.6956454115553e+27    1.2287298077171e+27    2.1996798126666e+27
     3.3200000000000    6.3840474305256e+26    1.3471674764640e+28
     5.0389373604097e+27    7.6900708612821e+25    3.7697343968719e+27
     8.6985170853307e+27    1.2294213519617e+27    2.1999583269788e+27
     3.3210000000000    6.3611751697733e+26    1.3461917280561e+28
     5.0475249169204e+27    7.7151965621093e+25    3.7601017100809e+27
     8.7013937449991e+27    1.2301132257981e+27    2.2002350301612e+27
     3.3220000000000    6.3383568777470e+26    1.3455973577485e+28
     5.0560351418269e+27    7.7404076975497e+25    3.7504874310434e+27
     8.7042753905605e+27    1.2308054292263e+27    2.2005099222135e+27
     3.3230000000000    6.3155925544466e+26    1.3454707445475e+28
     5.0644680351291e+27    7.7657042676032e+25    3.7408915597594e+27
     8.7071620220148e+27    1.2314979622463e+27    2.2007830031359e+27
     3.3240000000000    6.2928821998722e+26    1.3451113043512e+28
     5.0728235968271e+27    7.7910862722699e+25    3.7313140962289e+27
     8.7100536393621e+27    1.2321908248581e+27    2.2010542729284e+27
     3.3250000000000    6.2702239352903e+26    1.3444805572869e+28
     5.0811018269208e+27    7.8165537115498e+25    3.7217550404520e+27
     8.7129502426024e+27    1.2328840170617e+27    2.2013237315909e+27
     3.3260000000000    6.2476069758938e+26    1.3435793692242e+28
     5.0893027254103e+27    7.8421065854428e+25    3.7122143924285e+27
     8.7158518317356e+27    1.2335775388571e+27    2.2015913791235e+27
     3.3270000000000    6.2250296031025e+26    1.3426402595951e+28
     5.0974262922955e+27    7.8677448939490e+25    3.7026921521586e+27
     8.7187584067617e+27    1.2342713902442e+27    2.2018572155261e+27
     3.3280000000000    6.2024918169164e+26    1.3418398509648e+28
     5.1054725275765e+27    7.8934686370683e+25    3.6931883196423e+27
     8.7216699676809e+27    1.2349655712232e+27    2.2021212407988e+27
     3.3290000000000    6.1799936173355e+26    1.3411135153272e+28
     5.1134414312533e+27    7.9192778148008e+25    3.6837028948794e+27
     8.7245865144930e+27    1.2356600817940e+27    2.2023834549415e+27
     3.3300000000000    6.1575350043598e+26    1.3404424509882e+28
     5.1213330033258e+27    7.9451724271465e+25    3.6742358778701e+27
     8.7275080471980e+27    1.2363549219566e+27    2.2026438579542e+27
     3.3310000000000    6.1351159779894e+26    1.3398206960354e+28
     5.1291472437940e+27    7.9711524741054e+25    3.6647872686143e+27
     8.7304345657960e+27    1.2370500917110e+27    2.2029024498370e+27
     3.3320000000000    6.1127365382241e+26    1.3392478539666e+28
     5.1368841526580e+27    7.9972179556774e+25    3.6553570671120e+27
     8.7333660702870e+27    1.2377455910572e+27    2.2031592305899e+27
     3.3330000000000    6.0903826270283e+26    1.3387120548741e+28
     5.1445437299178e+27    8.0233688718625e+25    3.6459452733632e+27
     8.7363027348887e+27    1.2384414199952e+27    2.2034142550093e+27
     3.3340000000000    6.0677407607511e+26    1.3382063330644e+28
     5.1521259755733e+27    8.0496052226608e+25    3.6365518873680e+27
     8.7392463514912e+27    1.2391375785250e+27    2.2036696188364e+27
     3.3350000000000    6.0446818879469e+26    1.3377339981606e+28
     5.1596308896246e+27    8.0759270080723e+25    3.6271769091263e+27
     8.7421971040234e+27    1.2398340666466e+27    2.2039263937097e+27
     3.3360000000000    6.0212060086154e+26    1.3372950501627e+28
     5.1670584720717e+27    8.1023342280970e+25    3.6178203386381e+27
     8.7451549924852e+27    1.2405308843600e+27    2.2041845796292e+27
     3.3370000000000    5.9973129156241e+26    1.3368894890708e+28
     5.1744087229145e+27    8.1288268827348e+25    3.6084821759034e+27
     8.7481200168766e+27    1.2412280316651e+27    2.2044441765948e+27
     3.3380000000000    5.9728885323132e+26    1.3365173148848e+28
     5.1816816421530e+27    8.1554049719858e+25    3.5991624209223e+27
     8.7510921771976e+27    1.2419255085621e+27    2.2047051846067e+27
     3.3390000000000    5.9478368288533e+26    1.3361770575985e+28
     5.1888772297873e+27    8.1820684958499e+25    3.5898610736947e+27
     8.7540714734482e+27    1.2426233150509e+27    2.2049676036647e+27
     3.3400000000000    5.9221578052445e+26    1.3358496713902e+28
     5.1959954858174e+27    8.2088174543272e+25    3.5805781342206e+27
     8.7570579056284e+27    1.2433214511315e+27    2.2052314337690e+27
     3.3410000000000    5.8958514614867e+26    1.3355158484173e+28
     5.2030364102432e+27    8.2356518474177e+25    3.5713136025000e+27
     8.7600514737383e+27    1.2440199168039e+27    2.2054966749194e+27
     3.3420000000000    5.8690845872061e+26    1.3351749903940e+28
     5.2100000030648e+27    8.2625716751213e+25    3.5620674785330e+27
     8.7630521777777e+27    1.2447187120681e+27    2.2057633271160e+27
     3.3430000000000    5.8424987145380e+26    1.3348232511562e+28
     5.2168862642821e+27    8.2895769374381e+25    3.5528397623194e+27
     8.7660600177467e+27    1.2454177719395e+27    2.2060313903589e+27
     3.3440000000000    5.8162568743627e+26    1.3344482451772e+28
     5.2236951938952e+27    8.3166676343681e+25    3.5436304538595e+27
     8.7690749936454e+27    1.2461169991666e+27    2.2063008646479e+27
     3.3450000000000    5.7903590666803e+26    1.3340490337077e+28
     5.2304267919040e+27    8.3438437659112e+25    3.5344395531530e+27
     8.7720971054736e+27    1.2468163928059e+27    2.2065717499831e+27
     3.3460000000000    5.7648052914906e+26    1.3336254839276e+28
     5.2370810583086e+27    8.3711053320675e+25    3.5252670602000e+27
     8.7751263532315e+27    1.2475159528574e+27    2.2068440463645e+27
     3.3470000000000    5.7395955487938e+26    1.3331788507971e+28
     5.2436579931089e+27    8.3984523328369e+25    3.5161129750006e+27
     8.7781627369189e+27    1.2482156793210e+27    2.2071177537921e+27
     3.3480000000000    5.7147298385897e+26    1.3327200942259e+28
     5.2501575963051e+27    8.4258847682195e+25    3.5069772975547e+27
     8.7812062565360e+27    1.2489155721968e+27    2.2073928722659e+27
     3.3490000000000    5.6902081608785e+26    1.3322505519540e+28
     5.2565798678969e+27    8.4534026382153e+25    3.4978600278623e+27
     8.7842569120827e+27    1.2496156314848e+27    2.2076694017859e+27
     3.3500000000000    5.6660305156600e+26    1.3317702322555e+28
     5.2629248078845e+27    8.4810059428242e+25    3.4887611659234e+27
     8.7873147035590e+27    1.2503158571849e+27    2.2079473423520e+27
     3.3510000000000    5.6421969029343e+26    1.3312788144720e+28
     5.2691924162679e+27    8.5086946820463e+25    3.4796807117381e+27
     8.7903796309649e+27    1.2510162492972e+27    2.2082266939644e+27
     3.3520000000000    5.6187073227015e+26    1.3307764191520e+28
     5.2753826930470e+27    8.5364688558816e+25    3.4706186653063e+27
     8.7934516943004e+27    1.2517168078217e+27    2.2085076970674e+27
     3.3530000000000    5.5955621578057e+26    1.3302780915255e+28
     5.2814956382219e+27    8.5643284643300e+25    3.4615784063574e+27
     8.7965308935655e+27    1.2524175327583e+27    2.2087917787320e+27
     3.3540000000000    5.5727834132786e+26    1.3297929664551e+28
     5.2875307072435e+27    8.5922735073916e+25    3.4526509507303e+27
     8.7996172287602e+27    1.2531184241072e+27    2.2090791742230e+27
     3.3550000000000    5.5503838649322e+26    1.3293148387306e+28
     5.2934849282121e+27    8.6203039850663e+25    3.4438770127459e+27
     8.8027106998845e+27    1.2538194818681e+27    2.2093698835404e+27
     3.3560000000000    5.5283635127665e+26    1.3288424609175e+28
     5.2993578519832e+27    8.6484198973542e+25    3.4352532359184e+27
     8.8058113069384e+27    1.2545207060413e+27    2.2096639066842e+27
     3.3570000000000    5.5067223567815e+26    1.3283758330158e+28
     5.3051494785568e+27    8.6766212442553e+25    3.4266852075777e+27
     8.8089190499219e+27    1.2552220966266e+27    2.2099612436543e+27
     3.3580000000000    5.4854603969772e+26    1.3279150414262e+28
     5.3108598079329e+27    8.7049080257695e+25    3.4181299268262e+27
     8.8120339288351e+27    1.2559236536241e+27    2.2102618944509e+27
     3.3590000000000    5.4644630751306e+26    1.3274616145903e+28
     5.3164888401114e+27    8.7332802418969e+25    3.4095873936639e+27
     8.8151559436778e+27    1.2566253770338e+27    2.2105658590738e+27
     3.3600000000000    5.4435424521092e+26    1.3269246186218e+28
     5.3220365750925e+27    8.7617378926375e+25    3.4010576080909e+27
     8.8182850944502e+27    1.2573272668556e+27    2.2108731375231e+27
     3.3610000000000    5.4226958041696e+26    1.3262354524382e+28
     5.3275030128760e+27    8.7902809779912e+25    3.3925405701070e+27
     8.8214213811521e+27    1.2580293230896e+27    2.2111837297988e+27
     3.3620000000000    5.4019231313118e+26    1.3254686128551e+28
     5.3328881534619e+27    8.8189094979581e+25    3.3840362797125e+27
     8.8245648037837e+27    1.2587315457358e+27    2.2114976359009e+27
     3.3630000000000    5.3812244335359e+26    1.3245327851317e+28
     5.3381919968504e+27    8.8476234525381e+25    3.3755447369071e+27
     8.8277153623448e+27    1.2594339347941e+27    2.2118145981202e+27
     3.3640000000000    5.3605997108417e+26    1.3234265251376e+28
     5.3434145430413e+27    8.8764228417314e+25    3.3670659416910e+27
     8.8308730568356e+27    1.2601364902646e+27    2.2121303893949e+27
     3.3650000000000    5.3400489632295e+26    1.3221499682114e+28
     5.3485557920348e+27    8.9053076655377e+25    3.3585998940642e+27
     8.8340378872560e+27    1.2608392121473e+27    2.2124435193504e+27
     3.3660000000000    5.3195721906990e+26    1.3207183728838e+28
     5.3536157438307e+27    8.9342779239573e+25    3.3501465940266e+27
     8.8372098536060e+27    1.2615421004421e+27    2.2127539879867e+27
     3.3670000000000    5.2991693932504e+26    1.3193178719587e+28
     5.3585943984290e+27    8.9633336169900e+25    3.3417060415782e+27
     8.8403889558856e+27    1.2622451551491e+27    2.2130617953037e+27
     3.3680000000000    5.2788405708836e+26    1.3180036925126e+28
     5.3634917558299e+27    8.9924747446358e+25    3.3332782367190e+27
     8.8435751940948e+27    1.2629483762683e+27    2.2133669413015e+27
     3.3690000000000    5.2585857235986e+26    1.3167758345455e+28
     5.3683078160332e+27    9.0217013068949e+25    3.3248631794491e+27
     8.8467691710733e+27    1.2636517637996e+27    2.2136696186843e+27
     3.3700000000000    5.2384048513955e+26    1.3156342980573e+28
     5.3730425790390e+27    9.0510133037670e+25    3.3164608697685e+27
     8.8499765848780e+27    1.2643553177431e+27    2.2139714881820e+27
     3.3710000000000    5.2182979542742e+26    1.3145804080727e+28
     5.3776960448473e+27    9.0804107352524e+25    3.3080713076770e+27
     8.8531988443784e+27    1.2650590380988e+27    2.2142729321073e+27
     3.3720000000000    5.1982650322347e+26    1.3136174802828e+28
     5.3822682134581e+27    9.1098936013509e+25    3.2996944931748e+27
     8.8564359495746e+27    1.2657629248666e+27    2.2145739504602e+27
     3.3730000000000    5.1783060852771e+26    1.3127456542510e+28
     5.3867590848713e+27    9.1394619020626e+25    3.2913304262619e+27
     8.8596879004665e+27    1.2664669780467e+27    2.2148745432407e+27
     3.3740000000000    5.1584211134013e+26    1.3119628872725e+28
     5.3911686590871e+27    9.1691156373874e+25    3.2829791069381e+27
     8.8629546970542e+27    1.2671711976388e+27    2.2151747104487e+27
     3.3750000000000    5.1386101166073e+26    1.3112304023997e+28
     5.3954969361053e+27    9.1988548073254e+25    3.2746405352037e+27
     8.8662363393376e+27    1.2678755836432e+27    2.2154744520843e+27
     3.3760000000000    5.1188730948952e+26    1.3105370773021e+28
     5.3997439159260e+27    9.2286794118766e+25    3.2663147110584e+27
     8.8695328273167e+27    1.2685801360597e+27    2.2157737681475e+27
     3.3770000000000    5.0992100482648e+26    1.3098826712824e+28
     5.4039095985491e+27    9.2585894510409e+25    3.2580016345024e+27
     8.8728441609916e+27    1.2692848548884e+27    2.2160726586382e+27
     3.3780000000000    5.0796209767164e+26    1.3092639062690e+28
     5.4079939839748e+27    9.2885849248184e+25    3.2497013055356e+27
     8.8761703403622e+27    1.2699897401293e+27    2.2163711306225e+27
     3.3790000000000    5.0601058802497e+26    1.3086762135264e+28
     5.4119970722029e+27    9.3186658332091e+25    3.2414137241581e+27
     8.8795113654285e+27    1.2706947917823e+27    2.2166692687709e+27
     3.3800000000000    5.0406647588649e+26    1.3081079527602e+28
     5.4159188632335e+27    9.3488321762129e+25    3.2331388903698e+27
     8.8828672361906e+27    1.2714000098475e+27    2.2169670978125e+27
     3.3810000000000    5.0212976125619e+26    1.3075402823800e+28
     5.4197593570666e+27    9.3790839538298e+25    3.2248768041707e+27
     8.8862379526484e+27    1.2721053943249e+27    2.2172641772863e+27
     3.3820000000000    5.0020044413407e+26    1.3069710380795e+28
     5.4235185537021e+27    9.4094211660600e+25    3.2166274655609e+27
     8.8896235148019e+27    1.2728109452144e+27    2.2175599868402e+27
     3.3830000000000    4.9827852452014e+26    1.3064001918443e+28
     5.4271964531402e+27    9.4398438129033e+25    3.2083908745403e+27
     8.8930239226512e+27    1.2735166625161e+27    2.2178545255885e+27
     3.3840000000000    4.9636400241439e+26    1.3058275202041e+28
     5.4307930553807e+27    9.4703518943598e+25    3.2001670311090e+27
     8.8964391761962e+27    1.2742225462300e+27    2.2181477935312e+27
     3.3850000000000    4.9445687781682e+26    1.3052526115911e+28
     5.4343083604237e+27    9.5009454104294e+25    3.1919559352668e+27
     8.8998692754369e+27    1.2749285963560e+27    2.2184397906682e+27
     3.3860000000000    4.9255715072743e+26    1.3046752309030e+28
     5.4377423682692e+27    9.5316243611122e+25    3.1837575870140e+27
     8.9033142203734e+27    1.2756348128942e+27    2.2187308039051e+27
     3.3870000000000    4.9066482114623e+26    1.3040929095665e+28
     5.4410950789171e+27    9.5623887464081e+25    3.1755719863503e+27
     8.9067740110056e+27    1.2763411958446e+27    2.2190214752750e+27
     3.3880000000000    4.8877988907321e+26    1.3035170202185e+28
     5.4443664923676e+27    9.5932385663173e+25    3.1673991332759e+27
     8.9102486473336e+27    1.2770477452071e+27    2.2193118286776e+27
     3.3890000000000    4.8690235450838e+26    1.3029512929012e+28
     5.4475566086205e+27    9.6241738208395e+25    3.1592390277907e+27
     8.9137381293573e+27    1.2777544609818e+27    2.2196018641131e+27
     3.3900000000000    4.8503221745172e+26    1.3023957561432e+28
     5.4506654276759e+27    9.6551945099750e+25    3.1510916698948e+27
     8.9172424570767e+27    1.2784613431687e+27    2.2198915815812e+27
     3.3910000000000    4.8316882987681e+26    1.3018503536951e+28
     5.4536929495337e+27    9.6863006337236e+25    3.1429570595881e+27
     8.9207616304918e+27    1.2791683917677e+27    2.2201802025066e+27
     3.3920000000000    4.8123834538845e+26    1.3013150855571e+28
     5.4566391741941e+27    9.7174921920853e+25    3.1348351968707e+27
     8.9242956496027e+27    1.2798756067790e+27    2.2204665675825e+27
     3.3930000000000    4.7919061764293e+26    1.3007899451619e+28
     5.4595041016569e+27    9.7487691850603e+25    3.1267243731537e+27
     8.9278445144093e+27    1.2805829882023e+27    2.2207506658338e+27
     3.3940000000000    4.7707453860294e+26    1.3002749247252e+28
     5.4622877319222e+27    9.7801316126484e+25    3.1186175609608e+27
     8.9314082249117e+27    1.2812905360379e+27    2.2210324972606e+27
     3.3950000000000    4.7492772616637e+26    1.2997700043440e+28
     5.4649900649900e+27    9.8115794748496e+25    3.1105138043760e+27
     8.9349867811098e+27    1.2819982502856e+27    2.2213120618628e+27
     3.3960000000000    4.7275018033325e+26    1.2992749491568e+28
     5.4676111008603e+27    9.8431127716641e+25    3.1024131033993e+27
     8.9385801830036e+27    1.2827061309455e+27    2.2215893596405e+27
     3.3970000000000    4.7054190110356e+26    1.2987896912267e+28
     5.4701508404682e+27    9.8747315030916e+25    3.0943154580309e+27
     8.9421885024497e+27    1.2834141780176e+27    2.2218643905936e+27
     3.3980000000000    4.6830288847731e+26    1.2983142305536e+28
     5.4726113919360e+27    9.9064356691324e+25    3.0862208682705e+27
     8.9458120843296e+27    1.2841223915018e+27    2.2221371547221e+27
     3.3990000000000    4.6603314245449e+26    1.2978485671375e+28
     5.4749946922047e+27    9.9382252697863e+25    3.0781293341183e+27
     8.9494509738041e+27    1.2848307713982e+27    2.2224076520261e+27
     3.4000000000000    4.6373245991270e+26    1.2973946356112e+28
     5.4773007412743e+27    9.9700999201083e+25    3.0700408555743e+27
     8.9531051708734e+27    1.2855393177067e+27    2.2226758829260e+27
     3.4010000000000    4.6139957697392e+26    1.2969605266304e+28
     5.4795295391450e+27    1.0002052059653e+26    3.0619554326384e+27
     8.9567746755374e+27    1.2862480304275e+27    2.2229423439152e+27
     3.4020000000000    4.5903427528433e+26    1.2965481821816e+28
     5.4816810858167e+27    1.0034078759919e+26    3.0538730653106e+27
     8.9604594877961e+27    1.2869569095604e+27    2.2232074765642e+27
     3.4030000000000    4.5663655484394e+26    1.2961558235935e+28
     5.4837553812894e+27    1.0066180020905e+26    3.0457937535911e+27
     8.9641596076495e+27    1.2876659551054e+27    2.2234712808728e+27
     3.4040000000000    4.5420890977506e+26    1.2957784528240e+28
     5.4857524255630e+27    1.0098355842613e+26    3.0377174974796e+27
     8.9678750350977e+27    1.2883751670627e+27    2.2237337568411e+27
     3.4050000000000    4.5178038989999e+26    1.2954128840661e+28
     5.4876722186377e+27    1.0130606225042e+26    3.0296442969763e+27
     8.9716057701405e+27    1.2890845454321e+27    2.2239949044692e+27
     3.4060000000000    4.4935933062612e+26    1.2950534452088e+28
     5.4895147605133e+27    1.0162931168192e+26    3.0215741520812e+27
     8.9753518127781e+27    1.2897940902137e+27    2.2242547237569e+27
     3.4070000000000    4.4694710550989e+26    1.2947041022483e+28
     5.4912800511899e+27    1.0195330672063e+26    3.0135070627942e+27
     8.9791131630104e+27    1.2905038014074e+27    2.2245132147044e+27
     3.4080000000000    4.4454436533235e+26    1.2943653421959e+28
     5.4929680906675e+27    1.0227804736655e+26    3.0054428064306e+27
     8.9828898208375e+27    1.2912136790133e+27    2.2248111274195e+27
     3.4090000000000    4.4215109843045e+26    1.2940371578825e+28
     5.4945788789461e+27    1.0260353361968e+26    2.9973781070628e+27
     8.9866817862592e+27    1.2919237230314e+27    2.2251549990501e+27
     3.4100000000000    4.3976730480418e+26    1.2937195366766e+28
     5.4961124160257e+27    1.0292976548002e+26    2.9893118786010e+27
     8.9904890592757e+27    1.2926339334616e+27    2.2254961550067e+27
     3.4110000000000    4.3739298445356e+26    1.2934124245209e+28
     5.4975687019063e+27    1.0325674294757e+26    2.9812441210451e+27
     8.9943116398869e+27    1.2933443103040e+27    2.2258345952893e+27
     3.4120000000000    4.3502813737856e+26    1.2931155937240e+28
     5.4989477365879e+27    1.0358446602233e+26    2.9731748343951e+27
     8.9981495280928e+27    1.2940548535586e+27    2.2261703198978e+27
     3.4130000000000    4.3267276357921e+26    1.2928299510956e+28
     5.5002495200705e+27    1.0391293470430e+26    2.9651040186510e+27
     9.0020027238934e+27    1.2947655632254e+27    2.2265033288323e+27
     3.4140000000000    4.3032686305549e+26    1.2925563611720e+28
     5.5014740523540e+27    1.0424214899349e+26    2.9570316738128e+27
     9.0058712272888e+27    1.2954764393043e+27    2.2268336220928e+27
     3.4150000000000    4.2799043580740e+26    1.2922948238099e+28
     5.5026213334386e+27    1.0457210888988e+26    2.9489577998806e+27
     9.0097550382789e+27    1.2961874817954e+27    2.2271611996792e+27
     3.4160000000000    4.2566348183496e+26    1.2920453389738e+28
     5.5036913633241e+27    1.0490281439348e+26    2.9408823968543e+27
     9.0136541568636e+27    1.2968986906987e+27    2.2274860615917e+27
     3.4170000000000    4.2334600113814e+26    1.2918077328827e+28
     5.5046841420107e+27    1.0523426550430e+26    2.9328054647339e+27
     9.0175685830432e+27    1.2976100660141e+27    2.2278082078300e+27
     3.4180000000000    4.2103799371697e+26    1.2915811582650e+28
     5.5055996694982e+27    1.0556646222232e+26    2.9247270035195e+27
     9.0214983168174e+27    1.2983216077417e+27    2.2281276383944e+27
     3.4190000000000    4.1873945957143e+26    1.2913643394083e+28
     5.5064379457867e+27    1.0589940454756e+26    2.9166470132109e+27
     9.0254433581863e+27    1.2990333158814e+27    2.2284443532847e+27
     3.4200000000000    4.1645039870153e+26    1.2911557929065e+28
     5.5071989708762e+27    1.0623309248000e+26    2.9085654938084e+27
     9.0294037071500e+27    1.2997451904334e+27    2.2287583525010e+27
     3.4210000000000    4.1417081110726e+26    1.2926161046108e+28
     5.5078827447667e+27    1.0656752601966e+26    2.9004824453117e+27
     9.0333793637084e+27    1.3004572313975e+27    2.2290696360433e+27
     3.4220000000000    4.1190069678863e+26    1.2989054840090e+28
     5.5084892674582e+27    1.0690270516653e+26    2.8923978677209e+27
     9.0373703278615e+27    1.3011694387737e+27    2.2293782039115e+27
     3.4230000000000    4.0964005574564e+26    1.3101001829593e+28
     5.5090185389507e+27    1.0723862992061e+26    2.8843117610361e+27
     9.0413765996093e+27    1.3018818125622e+27    2.2296842968925e+27
     3.4240000000000    4.0738888797828e+26    1.3204118156853e+28
     5.5094705592441e+27    1.0757530028189e+26    2.8762241252572e+27
     9.0453981789519e+27    1.3025943527628e+27    2.2299892911273e+27
     3.4250000000000    4.0514719348656e+26    1.3211096163610e+28
     5.5098453283386e+27    1.0791271625039e+26    2.8681349603843e+27
     9.0494350658892e+27    1.3033070593755e+27    2.2302934049105e+27
     3.4260000000000    4.0291497227047e+26    1.3121056110405e+28
     5.5101428462340e+27    1.0825087782610e+26    2.8600442664172e+27
     9.0534872604212e+27    1.3040199324005e+27    2.2305966382422e+27
     3.4270000000000    4.0069222433003e+26    1.2936170602571e+28
     5.5103631129305e+27    1.0858978500902e+26    2.8519520433561e+27
     9.0575547625479e+27    1.3047329718376e+27    2.2308989911222e+27
     3.4280000000000    3.9847894966521e+26    1.2859924549264e+28
     5.5105061284279e+27    1.0892943779915e+26    2.8438582912009e+27
     9.0616375722693e+27    1.3054461776869e+27    2.2312004635507e+27
     3.4290000000000    3.9627514827604e+26    1.2856257766818e+28
     5.5105718927263e+27    1.0926983619649e+26    2.8357630099517e+27
     9.0657356895855e+27    1.3061595499483e+27    2.2315010555275e+27
     3.4300000000000    3.9408563910931e+26    1.2852118432321e+28
     5.5105604058257e+27    1.0961098020104e+26    2.8276661996084e+27
     9.0698491144963e+27    1.3068730886219e+27    2.2318007670527e+27
     3.4310000000000    3.9191656525529e+26    1.2847496076934e+28
     5.5104716677261e+27    1.0995286981281e+26    2.8195678601709e+27
     9.0739778470019e+27    1.3075867937077e+27    2.2320995981264e+27
     3.4320000000000    3.8976794870530e+26    1.2842376815212e+28
     5.5103056784275e+27    1.1029550503178e+26    2.8114679916395e+27
     9.0781218871022e+27    1.3083006652057e+27    2.2323975487484e+27
     3.4330000000000    3.8763978945934e+26    1.2836760621313e+28
     5.5100624379299e+27    1.1063888585796e+26    2.8033665940139e+27
     9.0822812347973e+27    1.3090147031158e+27    2.2326946189188e+27
     3.4340000000000    3.8553208751741e+26    1.2830647495239e+28
     5.5097419462333e+27    1.1098301229136e+26    2.7952636672943e+27
     9.0864558900870e+27    1.3097289074381e+27    2.2329908086377e+27
     3.4350000000000    3.8344484287950e+26    1.2824037091115e+28
     5.5093442033376e+27    1.1132788433196e+26    2.7871592114806e+27
     9.0906458529715e+27    1.3104432781725e+27    2.2332861179049e+27
     3.4360000000000    3.8137805554562e+26    1.2816928104188e+28
     5.5088692092430e+27    1.1167350197977e+26    2.7790532265728e+27
     9.0948511234507e+27    1.3111578153192e+27    2.2335805467206e+27
     3.4370000000000    3.7933172551577e+26    1.2809321084271e+28
     5.5083169639493e+27    1.1201986523480e+26    2.7709457125710e+27
     9.0990776583616e+27    1.3118725188780e+27    2.2338740950846e+27
     3.4380000000000    3.7730585278994e+26    1.2801205983280e+28
     5.5076874674567e+27    1.1236697409704e+26    2.7628366694751e+27
     9.1033362825145e+27    1.3125873888489e+27    2.2341667629970e+27
     3.4390000000000    3.7530043736815e+26    1.2792569479531e+28
     5.5069807197650e+27    1.1271482856648e+26    2.7547260972851e+27
     9.1076272219858e+27    1.3133024252320e+27    2.2344585504579e+27
     3.4400000000000    3.7331547925038e+26    1.2783411509389e+28
     5.5062275003597e+27    1.1306342864314e+26    2.7466139960010e+27
     9.1119504498157e+27    1.3140176280273e+27    2.2347494574671e+27
     3.4410000000000    3.7135097843664e+26    1.2773732072855e+28
     5.5054728921766e+27    1.1341277432701e+26    2.7385003656229e+27
     9.1162953539858e+27    1.3147329972348e+27    2.2350394840248e+27
     3.4420000000000    3.6940693492693e+26    1.2763619277771e+28
     5.5047167322100e+27    1.1376286561808e+26    2.7303852061506e+27
     9.1206532814242e+27    1.3154485328544e+27    2.2353285550022e+27
     3.4430000000000    3.6748334872125e+26    1.2753364075060e+28
     5.5039593493452e+27    1.1411370251637e+26    2.7222685175844e+27
     9.1250242321309e+27    1.3161642348863e+27    2.2356165308343e+27
     3.4440000000000    3.6558021981959e+26    1.2742988096823e+28
     5.5032059785725e+27    1.1446528502187e+26    2.7141502999240e+27
     9.1294082061059e+27    1.3168801033302e+27    2.2359034083941e+27
     3.4450000000000    3.6369754822196e+26    1.2732464968514e+28
     5.5024584352502e+27    1.1481761313458e+26    2.7060305531696e+27
     9.1338052033492e+27    1.3175961381864e+27    2.2361891876814e+27
     3.4460000000000    3.6183533392836e+26    1.2721776157708e+28
     5.5017167193782e+27    1.1517068685450e+26    2.6979092704092e+27
     9.1382152238608e+27    1.3183123394547e+27    2.2364738686964e+27
     3.4470000000000    3.5999357693879e+26    1.2711097066324e+28
     5.5009808309567e+27    1.1552450618163e+26    2.6897861195386e+27
     9.1426382676407e+27    1.3190287071352e+27    2.2367574514391e+27
     3.4480000000000    3.5817227725324e+26    1.2700748653014e+28
     5.5002507699855e+27    1.1587907111597e+26    2.6816609176060e+27
     9.1470743346889e+27    1.3197452412278e+27    2.2370399359093e+27
     3.4490000000000    3.5637143487173e+26    1.2690741104897e+28
     5.4995265364647e+27    1.1623438165752e+26    2.6735336646116e+27
     9.1515234250053e+27    1.3204619417326e+27    2.2373213221072e+27
     3.4500000000000    3.5459104979424e+26    1.2681074577053e+28
     5.4988081303942e+27    1.1659043780628e+26    2.6654043605553e+27
     9.1559855385901e+27    1.3211788086496e+27    2.2376016100327e+27
     3.4510000000000    3.5283112202077e+26    1.2671742615582e+28
     5.4980955517741e+27    1.1694723956226e+26    2.6572730054371e+27
     9.1604606754431e+27    1.3218958419787e+27    2.2378807996859e+27
     3.4520000000000    3.5109165155134e+26    1.2662735761608e+28
     5.4973888006044e+27    1.1730478692544e+26    2.6491395992570e+27
     9.1649488355645e+27    1.3226130417201e+27    2.2381588910667e+27
     3.4530000000000    3.4937263838593e+26    1.2653411921758e+28
     5.4966878768851e+27    1.1766307989583e+26    2.6410041420150e+27
     9.1694500189541e+27    1.3233304078736e+27    2.2384358841751e+27
     3.4540000000000    3.4767408252456e+26    1.2643380136596e+28
     5.4959927806161e+27    1.1802211847344e+26    2.6328666337111e+27
     9.1739642256121e+27    1.3240479404392e+27    2.2387117790112e+27
     3.4550000000000    3.4599598396721e+26    1.2633748126629e+28
     5.4953035117975e+27    1.1838190265825e+26    2.6247270743453e+27
     9.1784914555383e+27    1.3247656394170e+27    2.2389865755749e+27
     3.4560000000000    3.4433834271388e+26    1.2624705957650e+28
     5.4946200704292e+27    1.1874243245028e+26    2.6165854639177e+27
     9.1830317087328e+27    1.3254835048070e+27    2.2392602738662e+27
     3.4570000000000    3.4269788885961e+26    1.2616358192141e+28
     5.4939424565114e+27    1.1910370784951e+26    2.6084418024281e+27
     9.1875849851956e+27    1.3262015366092e+27    2.2395328738851e+27
     3.4580000000000    3.4106362706524e+26    1.2608702159208e+28
     5.4932706700439e+27    1.1946572885596e+26    2.6002960898767e+27
     9.1921512849267e+27    1.3269197348235e+27    2.2398043756317e+27
     3.4590000000000    3.3942944652188e+26    1.2601424241504e+28
     5.4926047110267e+27    1.1982849546961e+26    2.5921483262634e+27
     9.1967306079261e+27    1.3276380994500e+27    2.2400794469676e+27
     3.4600000000000    3.3779534343361e+26    1.2594356617251e+28
     5.4919445794600e+27    1.2019200769048e+26    2.5839985115882e+27
     9.2013229541938e+27    1.3283566304887e+27    2.2403692613655e+27
     3.4610000000000    3.3616131780042e+26    1.2587409787771e+28
     5.4912902753436e+27    1.2055626551856e+26    2.5758466458511e+27
     9.2059283237298e+27    1.3290753279395e+27    2.2406630269821e+27
     3.4620000000000    3.3452736962232e+26    1.2580586959274e+28
     5.4906417986776e+27    1.2092126895385e+26    2.5676927290521e+27
     9.2105467165341e+27    1.3297941918025e+27    2.2409560766787e+27
     3.4630000000000    3.3289349889931e+26    1.2573889855121e+28
     5.4899991494619e+27    1.2128701799635e+26    2.5595367611912e+27
     9.2151781326067e+27    1.3305132220777e+27    2.2412484104553e+27
     3.4640000000000    3.3125970563138e+26    1.2567258445442e+28
     5.4893623284002e+27    1.2165351264606e+26    2.5513787422684e+27
     9.2198225719476e+27    1.3312324187650e+27    2.2415400283118e+27
     3.4650000000000    3.2962598981853e+26    1.2560610864782e+28
     5.4887330312891e+27    1.2202075290298e+26    2.5432186722838e+27
     9.2244800345567e+27    1.3319517818646e+27    2.2418309302483e+27
     3.4660000000000    3.2799235146077e+26    1.2553947561630e+28
     5.4881128205960e+27    1.2238873876711e+26    2.5350565512372e+27
     9.2291505204342e+27    1.3326713113762e+27    2.2421211162647e+27
     3.4670000000000    3.2635879055810e+26    1.2547268607630e+28
     5.4875016963209e+27    1.2275747023845e+26    2.5268923791288e+27
     9.2338340295799e+27    1.3333910073001e+27    2.2424105863611e+27
     3.4680000000000    3.2472530711051e+26    1.2540570968915e+28
     5.4868996584639e+27    1.2312694731700e+26    2.5187261559585e+27
     9.2385305619940e+27    1.3341108696361e+27    2.2426993405374e+27
     3.4690000000000    3.2309190111800e+26    1.2533836212113e+28
     5.4863067070249e+27    1.2349717000276e+26    2.5105578817262e+27
     9.2432401176763e+27    1.3348308983843e+27    2.2429873787936e+27
     3.4700000000000    3.2145857258059e+26    1.2527063154984e+28
     5.4857228420039e+27    1.2386813829573e+26    2.5023875564321e+27
     9.2479626966270e+27    1.3355510935446e+27    2.2432747011298e+27
     3.4710000000000    3.1982532149825e+26    1.2520251797526e+28
     5.4851480634009e+27    1.2423985219592e+26    2.4942151800761e+27
     9.2526982988459e+27    1.3362714551171e+27    2.2435613075460e+27
     3.4720000000000    3.1819214787100e+26    1.2513402139740e+28
     5.4845823712160e+27    1.2461231170331e+26    2.4860407526583e+27
     9.2574469243332e+27    1.3369919831018e+27    2.2438471980421e+27
     3.4730000000000    3.1655905169884e+26    1.2506529529910e+28
     5.4840257654490e+27    1.2498551681791e+26    2.4778642741785e+27
     9.2622085730886e+27    1.3377126774987e+27    2.2441323726182e+27
     3.4740000000000    3.1492603298176e+26    1.2499717168165e+28
     5.4834782461001e+27    1.2535946753973e+26    2.4696857446368e+27
     9.2669832451125e+27    1.3384335383077e+27    2.2444168312742e+27
     3.4750000000000    3.1329309171976e+26    1.2492977538141e+28
     5.4829398131693e+27    1.2573416386875e+26    2.4615051640333e+27
     9.2717709404046e+27    1.3391545655289e+27    2.2447005740101e+27
     3.4760000000000    3.1166022791286e+26    1.2486310230399e+28
     5.4824104666564e+27    1.2610960580499e+26    2.4533225323678e+27
     9.2765716589650e+27    1.3398757591623e+27    2.2449836008260e+27
     3.4770000000000    3.1002744156103e+26    1.2479718419104e+28
     5.4818902065616e+27    1.2648579334843e+26    2.4451381918641e+27
     9.2813854007937e+27    1.3405971192078e+27    2.2452659117219e+27
     3.4780000000000    3.0839473266429e+26    1.2473242119877e+28
     5.4813790328848e+27    1.2686272649909e+26    2.4369566200567e+27
     9.2862121658907e+27    1.3413186456655e+27    2.2455475066977e+27
     3.4790000000000    3.0676246853741e+26    1.2466846044155e+28
     5.4808769456260e+27    1.2724040525696e+26    2.4287792001725e+27
     9.2910519542560e+27    1.3420403385354e+27    2.2458283857534e+27
     3.4800000000000    3.0513509005368e+26    1.2460509525873e+28
